ply
format ascii 1.0
comment INESC
element vertex 981
property float x
property float y
property float z
property uchar red
property uchar green
property uchar blue
end_header
-0.166439280 0.276932597 0.799000025 198 180 177
-0.164834097 0.276586026 0.798000038 191 177 177
-0.163437188 0.276586026 0.798000038 188 168 177
-0.161634207 0.275892824 0.796000063 185 168 172
-0.160240799 0.275892824 0.796000063 183 166 166
-0.158448249 0.275199622 0.794000030 181 165 162
-0.157058358 0.275199622 0.794000030 182 166 159
-0.155276343 0.274506450 0.792000055 184 166 155
-0.153501362 0.273813218 0.790000021 180 165 151
-0.151540801 0.272773445 0.787000060 177 166 154
-0.150163159 0.272773445 0.787000060 175 168 157
-0.148407385 0.272080243 0.785000026 173 165 157
-0.147033244 0.272080243 0.785000026 173 165 157
-0.145288020 0.271387041 0.783000052 170 162 158
-0.143917367 0.271387041 0.783000052 167 158 152
-0.142182618 0.270693809 0.781000018 165 155 146
-0.140815467 0.270693809 0.781000018 164 151 142
-0.139269784 0.270347238 0.780000031 162 148 137
-0.137904406 0.270347238 0.780000031 160 144 134
-0.136539012 0.270347238 0.780000031 156 139 130
-0.135173619 0.270347238 0.780000031 153 136 128
-0.133808225 0.270347238 0.780000031 149 134 126
-0.132103235 0.269654065 0.778000057 145 131 125
-0.130741358 0.269654065 0.778000057 142 128 125
-0.129379466 0.269654065 0.778000057 140 124 121
-0.127688482 0.268960834 0.776000023 140 124 121
-0.126330078 0.268960834 0.776000023 138 119 117
-0.124649599 0.268267632 0.774000049 136 118 112
-0.123294733 0.268267632 0.774000049 132 116 107
-0.121939845 0.268267632 0.774000049 129 114 107
-0.120584957 0.268267632 0.774000049 129 117 107
-0.119076006 0.267921060 0.773000062 130 111 109
-0.117722869 0.267921060 0.773000062 135 109 112
-0.116369754 0.267921060 0.773000062 141 129 128
-0.115016617 0.267921060 0.773000062 132 156 144
-0.113663465 0.267921060 0.773000062 123 118 118
-0.112310335 0.267921060 0.773000062 121 90 93
-0.110670097 0.267227829 0.771000028 121 90 93
-0.109320492 0.267227829 0.771000028 120 97 95
-0.107970841 0.267227829 0.771000028 124 98 97
-0.106344625 0.266534626 0.769000053 131 111 103
-0.104725420 0.265841454 0.767000020 134 111 103
-0.103247985 0.265494853 0.766000032 133 115 103
-0.101907119 0.265494853 0.766000032 133 115 105
-0.100566231 0.265494853 0.766000032 138 114 107
-0.099225342 0.265494853 0.766000032 143 116 111
-0.097884454 0.265494853 0.766000032 143 118 114
-0.096291497 0.264801651 0.764000058 144 123 113
-0.094954140 0.264801651 0.764000058 146 125 112
-0.093616754 0.264801651 0.764000058 149 126 114
-0.092279360 0.264801651 0.764000058 149 126 114
-0.090941973 0.264801651 0.764000058 148 125 117
-0.089604586 0.264801651 0.764000058 148 123 118
-0.088267222 0.264801651 0.764000058 148 121 120
-0.086929835 0.264801651 0.764000058 149 120 117
-0.085592449 0.264801651 0.764000058 145 117 114
-0.084255069 0.264801651 0.764000058 142 118 112
-0.082917675 0.264801651 0.764000058 141 117 111
-0.081366748 0.264108419 0.762000024 140 120 111
-0.080032863 0.264108419 0.762000024 140 122 112
-0.078698978 0.264108419 0.762000024 141 120 112
-0.077365093 0.264108419 0.762000024 141 123 113
-0.076031208 0.264108419 0.762000024 141 118 112
-0.074697345 0.264108419 0.762000024 141 118 112
-0.073363461 0.264108419 0.762000024 139 118 112
-0.072029576 0.264108419 0.762000024 138 116 112
-0.070695683 0.264108419 0.762000024 140 117 112
-0.069270775 0.263761878 0.761000037 142 120 112
-0.067760117 0.263068676 0.759000063 143 123 112
-0.066431478 0.263068676 0.759000063 145 125 114
-0.064931296 0.262375444 0.757000029 146 128 115
-0.063606158 0.262375444 0.757000029 148 129 113
-0.062281027 0.262375444 0.757000029 149 129 111
-0.060875397 0.262028843 0.756000042 150 127 114
-0.059630789 0.262375444 0.757000029 150 128 117
-0.058305655 0.262375444 0.757000029 151 127 119
-0.056980517 0.262375444 0.757000029 151 127 119
-0.055581860 0.262028843 0.756000042 150 128 121
-0.054258503 0.262028843 0.756000042 150 129 123
-0.053005144 0.262375444 0.757000029 152 131 125
-0.051680014 0.262375444 0.757000029 155 132 127
-0.050354876 0.262375444 0.757000029 159 136 129
-0.049029741 0.262375444 0.757000029 163 137 130
-0.047830675 0.263068676 0.759000063 160 138 131
-0.046502039 0.263068676 0.759000063 158 137 131
-0.045173407 0.263068676 0.759000063 157 141 132
-0.043844767 0.263068676 0.759000063 156 140 131
-0.042628165 0.263761878 0.761000037 157 140 131
-0.041296054 0.263761878 0.761000037 157 140 131
-0.039963916 0.263761878 0.761000037 159 139 137
-0.038631786 0.263761878 0.761000037 157 139 143
-0.037299648 0.263761878 0.761000037 156 162 150
-0.035967514 0.263761878 0.761000037 161 190 158
-0.034635402 0.263761878 0.761000037 166 160 149
-0.033347026 0.264108419 0.762000024 161 132 141
-0.032013141 0.264108419 0.762000024 157 140 138
-0.030679254 0.264108419 0.762000024 160 145 135
-0.029345369 0.264108419 0.762000024 164 146 139
-0.028085029 0.264801651 0.764000058 171 143 143
-0.026747642 0.264801651 0.764000058 178 159 148
-0.025410257 0.264801651 0.764000058 181 162 153
-0.024072867 0.264801651 0.764000058 181 162 153
-0.022735482 0.264801651 0.764000058 184 167 160
-0.021342102 0.264108419 0.762000024 191 172 168
-0.020008216 0.264108419 0.762000024 199 173 168
-0.018723344 0.264801651 0.764000058 204 173 168
-0.017385958 0.264801651 0.764000058 210 187 172
-0.016048571 0.264801651 0.764000058 213 195 175
-0.014711209 0.264801651 0.764000058 217 200 180
-0.013373821 0.264801651 0.764000058 216 203 185
-0.012036433 0.264801651 0.764000058 215 203 188
-0.010699047 0.264801651 0.764000058 217 202 191
-0.009361660 0.264801651 0.764000058 220 207 197
-0.008024298 0.264801651 0.764000058 223 211 202
-0.006686911 0.264801651 0.764000058 223 211 202
-0.005363528 0.265494853 0.766000032 226 211 201
-0.004027891 0.265841454 0.767000020 225 211 201
-0.002681751 0.265494853 0.766000032 225 218 201
-0.001346140 0.266534626 0.769000053 228 225 202
0.000000000 0.266534626 0.769000053 232 223 205
0.001349666 0.267227829 0.771000028 232 223 205
0.002699281 0.267227829 0.771000028 235 223 209
0.004048896 0.267227829 0.771000028 239 225 212
0.005412567 0.267921060 0.773000062 237 231 215
0.006765683 0.267921060 0.773000062 236 232 221
0.008129355 0.268267632 0.774000049 238 239 227
0.009484220 0.268267632 0.774000049 241 236 231
0.010839087 0.268267632 0.774000049 241 236 231
0.012194006 0.268267632 0.774000049 241 236 235
0.013548872 0.268267632 0.774000049 242 237 235
0.014942300 0.268960834 0.776000023 240 235 236
0.016342681 0.269654065 0.778000057 238 237 234
0.017659035 0.268960834 0.776000023 239 237 233
0.019017454 0.268960834 0.776000023 241 235 231
0.020428337 0.269654065 0.778000057 239 231 229
0.021790259 0.269654065 0.778000057 237 233 223
0.023152128 0.269654065 0.778000057 233 234 218
0.024513995 0.269654065 0.778000057 230 227 215
0.025875915 0.269654065 0.778000057 228 227 212
0.027237784 0.269654065 0.778000057 227 220 209
0.028599704 0.269654065 0.778000057 227 220 209
0.029961571 0.269654065 0.778000057 224 218 206
0.031323440 0.269654065 0.778000057 222 214 202
0.032769382 0.270347238 0.780000031 218 215 197
0.034134753 0.270347238 0.780000031 214 208 194
0.035409149 0.269654065 0.778000057 215 203 190
0.036771018 0.269654065 0.778000057 217 199 187
0.038230911 0.270347238 0.780000031 218 195 184
0.039596334 0.270347238 0.780000031 219 200 188
0.040961705 0.270347238 0.780000031 219 204 192
0.042327125 0.270347238 0.780000031 219 202 195
0.043692496 0.270347238 0.780000031 219 204 199
0.045057867 0.270347238 0.780000031 220 206 196
0.046423286 0.270347238 0.780000031 220 206 196
0.047666125 0.269654065 0.778000057 221 205 194
0.049028043 0.269654065 0.778000057 222 208 191
0.050260369 0.268960834 0.776000023 223 211 189
0.051618740 0.268960834 0.776000023 224 213 191
0.052977160 0.268960834 0.776000023 221 213 193
0.054335523 0.268960834 0.776000023 219 212 192
0.055693943 0.268960834 0.776000023 218 213 192
0.056905270 0.268267632 0.774000049 218 210 189
0.058410682 0.268960834 0.776000023 216 208 187
0.059615057 0.268267632 0.774000049 214 205 183
0.060969923 0.268267632 0.774000049 215 203 180
0.062324837 0.268267632 0.774000049 216 202 182
0.063597426 0.267921060 0.773000062 216 202 182
0.064950548 0.267921060 0.773000062 217 201 184
0.066303715 0.267921060 0.773000062 219 202 185
0.067656830 0.267921060 0.773000062 216 203 187
0.069009997 0.267921060 0.773000062 214 205 188
0.070363119 0.267921060 0.773000062 216 212 189
0.071530670 0.267227829 0.771000028 219 211 189
0.072691284 0.266534626 0.769000053 225 215 192
0.074037403 0.266534626 0.769000053 226 218 194
0.075383566 0.266534626 0.769000053 228 221 200
0.076530129 0.265841454 0.767000020 231 226 206
0.077872738 0.265841454 0.767000020 234 224 211
0.079421960 0.266534626 0.769000053 234 224 211
0.080558017 0.265841454 0.767000020 236 223 217
0.082114235 0.266534626 0.769000053 238 229 216
0.083460353 0.266534626 0.769000053 240 237 215
0.084806465 0.266534626 0.769000053 243 236 222
0.086152636 0.266534626 0.769000053 243 240 230
0.087498739 0.266534626 0.769000053 243 240 234
-0.215122461 0.275189102 0.798000038 254 253 253
-0.213725552 0.275189102 0.798000038 254 254 252
-0.212594718 0.275533944 0.799000025 252 251 251
-0.211196080 0.275533944 0.799000025 250 251 250
-0.209797442 0.275533944 0.799000025 249 248 249
-0.208398774 0.275533944 0.799000025 249 247 238
-0.207000107 0.275533944 0.799000025 242 244 228
-0.205344141 0.275189102 0.798000038 236 241 217
-0.203947276 0.275189102 0.798000038 237 235 206
-0.202042744 0.274499416 0.796000063 237 235 206
-0.200649336 0.274499416 0.796000063 238 238 210
-0.199255928 0.274499416 0.796000063 241 239 214
-0.197862521 0.274499416 0.796000063 244 242 218
-0.196962789 0.275189102 0.798000038 244 236 223
-0.195565879 0.275189102 0.798000038 243 233 222
-0.194412291 0.275533944 0.799000025 242 234 221
-0.193013623 0.275533944 0.799000025 241 234 219
-0.191614956 0.275533944 0.799000025 240 234 217
-0.190216333 0.275533944 0.799000025 239 234 213
-0.188817680 0.275533944 0.799000025 238 234 210
-0.187419042 0.275533944 0.799000025 237 235 203
-0.186020374 0.275533944 0.799000025 237 235 203
-0.184621722 0.275533944 0.799000025 235 232 196
-0.183681726 0.276223660 0.801000059 234 223 192
-0.182279572 0.276223660 0.801000059 234 224 189
-0.180877432 0.276223660 0.801000059 234 224 194
-0.179475263 0.276223660 0.801000059 228 210 200
-0.178073108 0.276223660 0.801000059 222 207 196
-0.176670983 0.276223660 0.801000059 217 201 192
-0.175268814 0.276223660 0.801000059 212 196 187
-0.173866674 0.276223660 0.801000059 209 191 182
-0.172464520 0.276223660 0.801000059 207 188 182
-0.171062350 0.276223660 0.801000059 203 188 182
-0.169236600 0.275533944 0.799000025 200 188 178
-0.167627901 0.275189102 0.798000038 200 188 178
-0.166230977 0.275189102 0.798000038 193 180 174
-0.164420977 0.274499416 0.796000063 187 178 169
-0.163027570 0.274499416 0.796000063 185 171 165
-0.161228061 0.273809731 0.794000030 182 168 162
-0.159838170 0.273809731 0.794000030 181 165 159
-0.158448249 0.273809731 0.794000030 181 163 156
-0.156662747 0.273120046 0.792000055 181 166 153
-0.155276343 0.273120046 0.792000055 182 170 154
-0.153501362 0.272430331 0.790000021 179 170 155
-0.151540801 0.271395802 0.787000060 177 172 159
-0.150163159 0.271395802 0.787000060 175 169 163
-0.148407385 0.270706087 0.785000026 173 168 162
-0.146658629 0.270016402 0.783000052 173 168 162
-0.145288020 0.270016402 0.783000052 170 165 161
-0.143549755 0.269326687 0.781000018 167 162 154
-0.142182618 0.269326687 0.781000018 166 158 147
-0.140815467 0.269326687 0.781000018 165 156 143
-0.139269784 0.268981874 0.780000031 164 151 139
-0.137904406 0.268981874 0.780000031 162 149 135
-0.136539012 0.268981874 0.780000031 159 143 131
-0.135173619 0.268981874 0.780000031 155 140 127
-0.133465126 0.268292189 0.778000057 152 136 123
-0.132103235 0.268292189 0.778000057 149 134 124
-0.130741358 0.268292189 0.778000057 147 130 125
-0.129046872 0.267602444 0.776000023 144 128 119
-0.127359390 0.266912758 0.774000049 144 128 119
-0.126004502 0.266912758 0.774000049 140 124 114
-0.124488555 0.266567916 0.773000062 137 123 108
-0.123135440 0.266567916 0.773000062 134 119 103
-0.121782288 0.266567916 0.773000062 131 118 106
-0.120429158 0.266567916 0.773000062 131 116 109
-0.119076006 0.266567916 0.773000062 132 112 111
-0.117722869 0.266567916 0.773000062 134 109 113
-0.116369754 0.266567916 0.773000062 137 106 131
-0.115016617 0.266567916 0.773000062 144 130 150
-0.113663465 0.266567916 0.773000062 150 139 117
-0.112019740 0.265878201 0.771000028 131 109 84
-0.110670097 0.265878201 0.771000028 131 109 84
-0.109320492 0.265878201 0.771000028 112 95 89
-0.107690766 0.265188485 0.769000053 123 101 98
-0.106344625 0.265188485 0.769000053 126 104 102
-0.104725420 0.264498830 0.767000020 130 108 103
-0.103247985 0.264153987 0.766000032 131 113 105
-0.101907119 0.264153987 0.766000032 133 117 109
-0.100566231 0.264153987 0.766000032 137 116 113
-0.099225342 0.264153987 0.766000032 142 117 110
-0.097884454 0.264153987 0.766000032 143 119 107
-0.096291497 0.263464272 0.764000058 144 123 106
-0.094954140 0.263464272 0.764000058 146 124 105
-0.093616754 0.263464272 0.764000058 147 126 109
-0.092279360 0.263464272 0.764000058 147 126 109
-0.090941973 0.263464272 0.764000058 147 125 114
-0.089604586 0.263464272 0.764000058 146 124 115
-0.088267222 0.263464272 0.764000058 147 123 117
-0.086929835 0.263464272 0.764000058 147 125 112
-0.085592449 0.263464272 0.764000058 145 121 108
-0.084255069 0.263464272 0.764000058 143 121 107
-0.082917675 0.263464272 0.764000058 142 120 107
-0.081366748 0.262774557 0.762000024 141 122 109
-0.080032863 0.262774557 0.762000024 140 121 111
-0.078698978 0.262774557 0.762000024 139 119 115
-0.077365093 0.262774557 0.762000024 140 118 119
-0.076031208 0.262774557 0.762000024 141 115 116
-0.074697345 0.262774557 0.762000024 141 115 116
-0.073363461 0.262774557 0.762000024 140 117 114
-0.072029576 0.262774557 0.762000024 139 120 113
-0.070695683 0.262774557 0.762000024 140 120 112
-0.069270775 0.262429744 0.761000037 141 123 116
-0.067760117 0.261740029 0.759000063 144 122 120
-0.066431478 0.261740029 0.759000063 148 125 120
-0.064931296 0.261050314 0.757000029 148 129 120
-0.063606158 0.261050314 0.757000029 148 137 115
-0.062281027 0.261050314 0.757000029 149 130 110
-0.060875397 0.260705471 0.756000042 150 127 114
-0.059630789 0.261050314 0.757000029 151 127 118
-0.058305655 0.261050314 0.757000029 151 126 121
-0.056905247 0.260705471 0.756000042 151 126 121
-0.055581860 0.260705471 0.756000042 151 128 124
-0.054258503 0.260705471 0.756000042 152 129 126
-0.052935123 0.260705471 0.756000042 153 132 129
-0.051680014 0.261050314 0.757000029 155 134 130
-0.050354876 0.261050314 0.757000029 158 135 132
-0.049029741 0.261050314 0.757000029 161 137 133
-0.047704633 0.261050314 0.757000029 161 136 135
-0.046502039 0.261740029 0.759000063 161 136 137
-0.045173407 0.261740029 0.759000063 160 139 140
-0.043844767 0.261740029 0.759000063 160 140 140
-0.042516135 0.261740029 0.759000063 162 140 141
-0.041187525 0.261740029 0.759000063 162 140 141
-0.039858893 0.261740029 0.759000063 164 141 148
-0.038631786 0.262429744 0.761000037 164 168 156
-0.037201621 0.261740029 0.759000063 164 193 156
-0.035872985 0.261740029 0.759000063 165 163 156
-0.034544379 0.261740029 0.759000063 165 135 143
-0.033303268 0.262429744 0.761000037 166 141 131
-0.031971131 0.262429744 0.761000037 167 142 130
-0.030638995 0.262429744 0.761000037 171 147 129
-0.029306859 0.262429744 0.761000037 176 148 138
-0.028011508 0.262774557 0.762000024 182 158 148
-0.026677622 0.262774557 0.762000024 189 174 153
-0.025343735 0.262774557 0.762000024 191 170 158
-0.024009850 0.262774557 0.762000024 191 170 158
-0.022675963 0.262774557 0.762000024 193 169 165
-0.021314096 0.262429744 0.761000037 200 179 173
-0.020008216 0.262774557 0.762000024 207 176 175
-0.018674329 0.262774557 0.762000024 209 184 177
-0.017340444 0.262774557 0.762000024 212 192 180
-0.016006557 0.262774557 0.762000024 216 201 184
-0.014672697 0.262774557 0.762000024 220 208 183
-0.013373821 0.263464272 0.764000058 219 208 182
-0.012036433 0.263464272 0.764000058 218 210 186
-0.010699047 0.263464272 0.764000058 222 211 190
-0.009361660 0.263464272 0.764000058 226 213 195
-0.008024298 0.263464272 0.764000058 227 216 201
-0.006686911 0.263464272 0.764000058 227 216 201
-0.005349523 0.263464272 0.764000058 229 216 197
-0.004022639 0.264153987 0.766000032 230 219 193
-0.002674749 0.263464272 0.764000058 231 222 196
-0.001342639 0.264498830 0.767000020 233 226 199
0.000000000 0.264498830 0.767000020 235 227 208
0.001346165 0.265188485 0.769000053 235 227 217
0.002692279 0.265188485 0.769000053 236 225 215
0.004048896 0.265878201 0.771000028 236 225 215
0.005398563 0.265878201 0.771000028 237 232 213
0.006748178 0.265878201 0.771000028 239 234 220
0.008118850 0.266567916 0.773000062 240 237 228
0.009471967 0.266567916 0.773000062 241 238 231
0.010825083 0.266567916 0.773000062 241 238 231
0.012194006 0.266912758 0.774000049 241 238 235
0.013548872 0.266912758 0.774000049 241 241 235
0.014942300 0.267602444 0.776000023 240 239 236
0.016300667 0.267602444 0.776000023 239 240 234
0.017613523 0.266912758 0.774000049 240 236 232
0.019017454 0.267602444 0.776000023 242 239 229
0.020375822 0.267602444 0.776000023 240 234 226
0.021734240 0.267602444 0.776000023 237 235 222
0.023092609 0.267602444 0.776000023 233 231 218
0.024513995 0.268292189 0.778000057 228 226 214
0.025809396 0.267602444 0.776000023 227 222 210
0.027167762 0.267602444 0.776000023 226 218 208
0.028599704 0.268292189 0.778000057 226 218 208
0.029961571 0.268292189 0.778000057 224 216 207
0.031323440 0.268292189 0.778000057 222 208 200
0.032685362 0.268292189 0.778000057 217 207 193
0.034047231 0.268292189 0.778000057 212 201 192
0.035409149 0.268292189 0.778000057 212 201 192
0.036771018 0.268292189 0.778000057 212 199 187
0.038132887 0.268292189 0.778000057 215 196 182
0.039596334 0.268981874 0.780000031 218 203 186
0.040856674 0.268292189 0.778000057 215 197 191
0.042218596 0.268292189 0.778000057 213 191 196
0.043580461 0.268292189 0.778000057 214 198 201
0.044826794 0.267602444 0.776000023 215 204 196
0.046304256 0.268292189 0.778000057 215 204 196
0.047543585 0.267602444 0.776000023 216 204 192
0.048775967 0.266912758 0.774000049 216 206 190
0.050130837 0.266912758 0.774000049 219 205 188
0.051485702 0.266912758 0.774000049 222 207 187
0.052840620 0.266912758 0.774000049 219 209 187
0.054195486 0.266912758 0.774000049 216 209 190
0.055550404 0.266912758 0.774000049 217 209 193
0.056905270 0.266912758 0.774000049 217 208 191
0.058260135 0.266912758 0.774000049 217 206 190
0.059615057 0.266912758 0.774000049 216 204 182
0.060969923 0.266912758 0.774000049 216 202 175
0.062324837 0.266912758 0.774000049 216 203 175
0.063597426 0.266567916 0.773000062 216 203 175
0.064950548 0.266567916 0.773000062 216 202 176
0.066303715 0.266567916 0.773000062 216 202 180
0.067481779 0.265878201 0.771000028 215 201 184
0.068831444 0.265878201 0.771000028 214 200 184
0.069999009 0.265188485 0.769000053 220 211 187
0.071345121 0.265188485 0.769000053 223 210 191
0.072502241 0.264498830 0.767000020 226 211 195
0.073844850 0.264498830 0.767000020 227 214 199
0.075187519 0.264498830 0.767000020 228 220 204
0.076530129 0.264498830 0.767000020 231 223 210
0.077872738 0.264498830 0.767000020 233 225 213
0.079215400 0.264498830 0.767000020 233 225 213
0.080558017 0.264498830 0.767000020 234 224 217
0.081900686 0.264498830 0.767000020 235 227 217
0.083243296 0.264498830 0.767000020 237 231 217
0.084585913 0.264498830 0.767000020 239 233 224
0.085928574 0.264498830 0.767000020 239 235 231
0.087271184 0.264498830 0.767000020 240 240 234
-0.215122461 0.273792207 0.798000038 254 251 252
-0.213725552 0.273792207 0.798000038 253 252 250
-0.212328658 0.273792207 0.798000038 252 251 249
-0.210931763 0.273792207 0.798000038 252 248 247
-0.209534883 0.273792207 0.798000038 249 247 245
-0.208137959 0.273792207 0.798000038 247 246 236
-0.206741065 0.273792207 0.798000038 235 242 227
-0.205344141 0.273792207 0.798000038 223 235 221
-0.203436136 0.273106039 0.796000063 230 225 215
-0.202042744 0.273106039 0.796000063 230 225 215
-0.200649336 0.273106039 0.796000063 237 235 218
-0.199255928 0.273106039 0.796000063 240 238 222
-0.197862521 0.273106039 0.796000063 244 238 222
-0.196962789 0.273792207 0.798000038 242 237 222
-0.195565879 0.273792207 0.798000038 240 235 223
-0.194412291 0.274135321 0.799000025 240 237 223
-0.193013623 0.274135321 0.799000025 241 235 221
-0.191614956 0.274135321 0.799000025 242 233 218
-0.189978272 0.273792207 0.798000038 243 232 214
-0.188581377 0.273792207 0.798000038 240 233 211
-0.187419042 0.274135321 0.799000025 237 234 206
-0.185787559 0.273792207 0.798000038 237 234 206
-0.184390679 0.273792207 0.798000038 234 239 201
-0.183223099 0.274135321 0.799000025 231 227 198
-0.181824431 0.274135321 0.799000025 231 223 196
-0.180877432 0.274821520 0.801000059 231 218 196
-0.179475263 0.274821520 0.801000059 225 206 197
-0.177628472 0.274135321 0.799000025 220 203 192
-0.176229849 0.274135321 0.799000025 216 196 186
-0.174831182 0.274135321 0.799000025 213 195 182
-0.173432529 0.274135321 0.799000025 209 192 178
-0.172033891 0.274135321 0.799000025 206 188 177
-0.170635223 0.274135321 0.799000025 200 185 176
-0.169024795 0.273792207 0.798000038 195 182 172
-0.167207778 0.273106039 0.796000063 195 182 172
-0.165814370 0.273106039 0.796000063 189 177 168
-0.164420977 0.273106039 0.796000063 184 173 164
-0.162617937 0.272419810 0.794000030 182 170 161
-0.161228061 0.272419810 0.794000030 180 167 160
-0.159838170 0.272419810 0.794000030 180 164 159
-0.158049151 0.271733642 0.792000055 181 165 156
-0.156267136 0.271047413 0.790000021 180 168 153
-0.154884234 0.271047413 0.790000021 180 170 151
-0.153112739 0.270361245 0.788000047 179 174 150
-0.151540801 0.270018160 0.787000060 178 171 154
-0.149781540 0.269331962 0.785000026 176 170 158
-0.148407385 0.269331962 0.785000026 174 169 157
-0.146658629 0.268645763 0.783000052 174 169 157
-0.145288020 0.268645763 0.783000052 170 169 155
-0.143549755 0.267959565 0.781000018 167 164 151
-0.142182618 0.267959565 0.781000018 167 161 147
-0.140635177 0.267616451 0.780000031 167 158 146
-0.139269784 0.267616451 0.780000031 166 154 146
-0.137904406 0.267616451 0.780000031 165 151 143
-0.136539012 0.267616451 0.780000031 161 147 140
-0.134827018 0.266930282 0.778000057 158 142 134
-0.133465126 0.266930282 0.778000057 156 139 129
-0.132103235 0.266930282 0.778000057 154 135 130
-0.130405262 0.266244054 0.776000023 151 132 131
-0.128714278 0.265557885 0.774000049 149 131 125
-0.127194837 0.265214801 0.773000062 149 131 125
-0.125841692 0.265214801 0.773000062 143 126 119
-0.124488555 0.265214801 0.773000062 138 125 113
-0.123135440 0.265214801 0.773000062 136 121 107
-0.121782288 0.265214801 0.773000062 134 122 108
-0.120429158 0.265214801 0.773000062 134 120 109
-0.119076006 0.265214801 0.773000062 134 116 112
-0.117722869 0.265214801 0.773000062 134 111 114
-0.116369754 0.265214801 0.773000062 134 114 124
-0.114719018 0.264528573 0.771000028 156 122 134
-0.113663465 0.265214801 0.773000062 178 129 129
-0.112019740 0.264528573 0.771000028 141 112 125
-0.110670097 0.264528573 0.771000028 141 112 125
-0.109320492 0.264528573 0.771000028 104 98 113
-0.107690766 0.263842374 0.769000053 118 98 102
-0.106344625 0.263842374 0.769000053 122 99 102
-0.104725420 0.263156205 0.767000020 126 105 104
-0.103247985 0.262813091 0.766000032 130 113 106
-0.101907119 0.262813091 0.766000032 134 115 107
-0.100566231 0.262813091 0.766000032 137 119 109
-0.099225342 0.262813091 0.766000032 141 117 108
-0.097884454 0.262813091 0.766000032 143 119 107
-0.096291497 0.262126893 0.764000058 145 121 106
-0.094954140 0.262126893 0.764000058 145 124 105
-0.093616754 0.262126893 0.764000058 146 124 108
-0.092279360 0.262126893 0.764000058 146 124 108
-0.090941973 0.262126893 0.764000058 145 126 110
-0.089604586 0.262126893 0.764000058 145 125 111
-0.088267222 0.262126893 0.764000058 145 125 112
-0.086702265 0.261440694 0.762000024 146 126 111
-0.085368380 0.261440694 0.762000024 145 124 110
-0.084034495 0.261440694 0.762000024 145 122 110
-0.082700610 0.261440694 0.762000024 144 121 110
-0.081366748 0.261440694 0.762000024 143 122 110
-0.080032863 0.261440694 0.762000024 140 124 110
-0.078698978 0.261440694 0.762000024 138 118 111
-0.077365093 0.261440694 0.762000024 139 115 111
-0.076031208 0.261440694 0.762000024 141 115 111
-0.074697345 0.261440694 0.762000024 141 115 111
-0.073363461 0.261440694 0.762000024 141 115 112
-0.072029576 0.261440694 0.762000024 141 119 112
-0.070695683 0.261440694 0.762000024 141 123 112
-0.069270775 0.261097610 0.761000037 141 122 113
-0.067760117 0.260411441 0.759000063 146 120 115
-0.066431478 0.260411441 0.759000063 151 124 116
-0.064931296 0.259725213 0.757000029 150 128 118
-0.063606158 0.259725213 0.757000029 149 130 116
-0.062281027 0.259725213 0.757000029 150 128 114
-0.060955919 0.259725213 0.757000029 151 128 116
-0.059630789 0.259725213 0.757000029 151 129 118
-0.058305655 0.259725213 0.757000029 152 128 118
-0.056980517 0.259725213 0.757000029 152 128 118
-0.055581860 0.259382099 0.756000042 153 130 118
-0.054258503 0.259382099 0.756000042 154 131 122
-0.053005144 0.259725213 0.757000029 155 134 125
-0.051680014 0.259725213 0.757000029 156 134 127
-0.050354876 0.259725213 0.757000029 157 135 129
-0.049029741 0.259725213 0.757000029 159 136 134
-0.047704633 0.259725213 0.757000029 161 135 139
-0.046502039 0.260411441 0.759000063 164 140 138
-0.045173407 0.260411441 0.759000063 164 142 138
-0.043844767 0.260411441 0.759000063 164 144 139
-0.042516135 0.260411441 0.759000063 167 141 141
-0.041187525 0.260411441 0.759000063 167 141 141
-0.039858893 0.260411441 0.759000063 170 169 151
-0.038530257 0.260411441 0.759000063 171 199 162
-0.037201621 0.260411441 0.759000063 173 170 157
-0.035872985 0.260411441 0.759000063 169 136 152
-0.034544379 0.260411441 0.759000063 165 148 145
-0.033215739 0.260411441 0.759000063 171 157 138
-0.031971131 0.261097610 0.761000037 177 154 140
-0.030558472 0.260411441 0.759000063 182 153 142
-0.029306859 0.261097610 0.761000037 188 159 149
-0.027974749 0.261097610 0.761000037 194 168 157
-0.026642613 0.261097610 0.761000037 201 175 164
-0.025343735 0.261440694 0.762000024 201 177 171
-0.024009850 0.261440694 0.762000024 201 177 171
-0.022646205 0.261097610 0.761000037 202 186 176
-0.021258080 0.260411441 0.759000063 208 202 181
-0.019981958 0.261097610 0.761000037 215 194 182
-0.018674329 0.261440694 0.762000024 215 198 183
-0.017340444 0.261440694 0.762000024 215 201 186
-0.016006557 0.261440694 0.762000024 219 210 189
-0.014672697 0.261440694 0.762000024 224 210 190
-0.013338811 0.261440694 0.762000024 222 211 192
-0.012004925 0.261440694 0.762000024 221 215 196
-0.010699047 0.262126893 0.764000058 226 220 200
-0.009337152 0.261440694 0.762000024 232 221 203
-0.008003292 0.261440694 0.762000024 232 226 206
-0.006669405 0.261440694 0.762000024 232 226 206
-0.005349523 0.262126893 0.764000058 232 225 208
-0.004012136 0.262126893 0.764000058 234 228 210
-0.002674749 0.262126893 0.764000058 237 228 212
-0.001340888 0.262813091 0.766000032 238 233 215
0.000000000 0.262813091 0.766000032 239 231 219
0.001342664 0.263156205 0.767000020 236 233 223
0.002685277 0.263156205 0.767000020 233 232 221
0.004038393 0.263842374 0.769000053 238 239 219
0.005384559 0.263842374 0.769000053 243 237 220
0.006730673 0.263842374 0.769000053 242 240 221
0.008097844 0.264528573 0.771000028 242 240 221
0.009471967 0.265214801 0.773000062 242 238 225
0.010825083 0.265214801 0.773000062 242 238 225
0.012178250 0.265214801 0.773000062 241 239 229
0.013531366 0.265214801 0.773000062 241 239 232
0.014903789 0.265557885 0.774000049 240 240 236
0.016258655 0.265557885 0.774000049 240 237 233
0.017613523 0.265557885 0.774000049 242 231 230
0.018968441 0.265557885 0.774000049 244 233 225
0.020323306 0.265557885 0.774000049 241 232 221
0.021678226 0.265557885 0.774000049 238 231 220
0.023033094 0.265557885 0.774000049 232 229 219
0.024450976 0.266244054 0.776000023 227 224 216
0.025742875 0.265557885 0.774000049 226 220 213
0.027167762 0.266244054 0.776000023 225 219 210
0.028526183 0.266244054 0.776000023 225 219 210
0.029884549 0.266244054 0.776000023 224 220 207
0.031242914 0.266244054 0.776000023 223 210 201
0.032601334 0.266244054 0.776000023 217 206 195
0.034047231 0.266930282 0.778000057 211 201 193
0.035318121 0.266244054 0.776000023 209 202 191
0.036771018 0.266930282 0.778000057 207 195 182
0.038132887 0.266930282 0.778000057 212 189 173
0.039494805 0.266930282 0.778000057 217 192 177
0.040856674 0.266930282 0.778000057 212 190 181
0.042110063 0.266244054 0.776000023 207 191 188
0.043468431 0.266244054 0.776000023 209 196 195
0.044826794 0.266244054 0.776000023 211 199 195
0.046185218 0.266244054 0.776000023 211 199 195
0.047421049 0.265557885 0.774000049 211 202 196
0.048775967 0.265557885 0.774000049 211 201 192
0.050130837 0.265557885 0.774000049 216 199 188
0.051485702 0.265557885 0.774000049 221 204 185
0.052840620 0.265557885 0.774000049 217 208 182
0.054195486 0.265557885 0.774000049 214 207 185
0.055550404 0.265557885 0.774000049 215 209 188
0.056905270 0.265557885 0.774000049 217 207 186
0.058184862 0.265214801 0.773000062 218 206 185
0.059538033 0.265214801 0.773000062 219 202 180
0.060891144 0.265214801 0.773000062 217 200 175
0.062244315 0.265214801 0.773000062 216 202 178
0.063432880 0.264528573 0.771000028 216 202 178
0.064950548 0.265214801 0.773000062 215 205 182
0.066132165 0.264528573 0.771000028 214 201 184
0.067306727 0.263842374 0.769000053 215 201 187
0.068652898 0.263842374 0.769000053 218 206 187
0.069816962 0.263156205 0.767000020 221 207 188
0.071159571 0.263156205 0.767000020 224 207 190
0.072502241 0.263156205 0.767000020 227 211 195
0.073844850 0.263156205 0.767000020 228 210 200
0.075187519 0.263156205 0.767000020 229 215 205
0.076430351 0.262813091 0.766000032 231 222 211
0.077872738 0.263156205 0.767000020 233 223 213
0.079215400 0.263156205 0.767000020 233 223 213
0.080452994 0.262813091 0.766000032 232 222 215
0.081900686 0.263156205 0.767000020 232 226 214
0.083243296 0.263156205 0.767000020 233 229 214
0.084585913 0.263156205 0.767000020 235 230 218
0.085928574 0.263156205 0.767000020 236 229 222
0.087271184 0.263156205 0.767000020 238 235 226
-0.214583308 0.271712631 0.796000063 253 252 251
-0.213189900 0.271712631 0.796000063 251 252 249
-0.212328658 0.272395313 0.798000038 250 249 247
-0.210931763 0.272395313 0.798000038 250 246 244
-0.209534883 0.272395313 0.798000038 248 246 242
-0.207616314 0.271712631 0.796000063 246 248 234
-0.206222922 0.271712631 0.796000063 239 240 226
-0.204314858 0.271029919 0.794000030 232 233 225
-0.202924982 0.271029919 0.794000030 234 234 225
-0.201535076 0.271029919 0.794000030 234 234 225
-0.200145170 0.271029919 0.794000030 236 240 227
-0.199255928 0.271712631 0.796000063 239 237 230
-0.197862521 0.271712631 0.796000063 243 237 226
-0.196469143 0.271712631 0.796000063 241 236 222
-0.195565879 0.272395313 0.798000038 240 236 224
-0.194168970 0.272395313 0.798000038 239 237 226
-0.193013623 0.272736639 0.799000025 239 238 223
-0.191375166 0.272395313 0.798000038 239 233 220
-0.189978272 0.272395313 0.798000038 239 231 216
-0.188581377 0.272395313 0.798000038 237 231 212
-0.187184483 0.272395313 0.798000038 236 232 209
-0.185787559 0.272395313 0.798000038 236 232 209
-0.183928534 0.271712631 0.796000063 231 229 206
-0.182993785 0.272395313 0.798000038 226 224 204
-0.181596875 0.272395313 0.798000038 227 221 203
-0.180425793 0.272736639 0.799000025 227 219 199
-0.179027140 0.272736639 0.799000025 225 211 195
-0.177628472 0.272736639 0.799000025 224 205 188
-0.176229849 0.272736639 0.799000025 218 198 181
-0.174831182 0.272736639 0.799000025 213 198 178
-0.173432529 0.272736639 0.799000025 208 192 175
-0.172033891 0.272736639 0.799000025 203 187 173
-0.170421675 0.272395313 0.798000038 199 185 171
-0.169024795 0.272395313 0.798000038 194 181 166
-0.167207778 0.271712631 0.796000063 194 181 166
-0.165814370 0.271712631 0.796000063 189 176 162
-0.164007843 0.271029919 0.794000030 185 170 159
-0.162617937 0.271029919 0.794000030 182 169 157
-0.161228061 0.271029919 0.794000030 180 169 158
-0.159435555 0.270347238 0.792000055 180 167 160
-0.158049151 0.270347238 0.792000055 180 167 156
-0.156267136 0.269664556 0.790000021 180 168 153
-0.154884234 0.269664556 0.790000021 179 171 149
-0.153112739 0.268981844 0.788000047 179 171 146
-0.151540801 0.268640518 0.787000060 179 171 150
-0.149781540 0.267957807 0.785000026 177 170 154
-0.148029298 0.267275125 0.783000052 175 171 152
-0.146284029 0.266592413 0.781000018 175 171 152
-0.144916907 0.266592413 0.781000018 173 168 150
-0.143365964 0.266251057 0.780000031 171 165 148
-0.142000571 0.266251057 0.780000031 170 164 147
-0.140635177 0.266251057 0.780000031 169 164 150
-0.139269784 0.266251057 0.780000031 167 159 153
-0.137550816 0.265568405 0.778000057 165 154 151
-0.136188924 0.265568405 0.778000057 163 149 149
-0.134827018 0.265568405 0.778000057 161 142 142
-0.133122027 0.264885694 0.776000023 158 140 136
-0.131763637 0.264885694 0.776000023 156 138 137
-0.130069166 0.264203012 0.774000049 153 138 138
-0.128547981 0.263861656 0.773000062 151 139 131
-0.127194837 0.263861656 0.773000062 151 139 131
-0.125841692 0.263861656 0.773000062 147 133 125
-0.124488555 0.263861656 0.773000062 143 130 118
-0.123135440 0.263861656 0.773000062 141 127 112
-0.121467195 0.263178945 0.771000028 139 130 111
-0.120117560 0.263178945 0.771000028 139 125 110
-0.118767917 0.263178945 0.771000028 139 124 113
-0.117722869 0.263861656 0.773000062 137 118 116
-0.116068661 0.263178945 0.771000028 136 118 117
-0.114719018 0.263178945 0.771000028 146 125 118
-0.113369375 0.263178945 0.771000028 157 146 142
-0.112019740 0.263178945 0.771000028 137 126 167
-0.110670097 0.263178945 0.771000028 118 91 137
-0.109036908 0.262496233 0.769000053 120 96 108
-0.107690766 0.262496233 0.769000053 123 98 105
-0.106068045 0.261813551 0.767000020 124 101 103
-0.104725420 0.261813551 0.767000020 125 102 105
-0.103247985 0.261472225 0.766000032 129 110 107
-0.101907119 0.261472225 0.766000032 133 112 106
-0.100566231 0.261472225 0.766000032 136 114 105
-0.099225342 0.261472225 0.766000032 139 116 106
-0.097884454 0.261472225 0.766000032 141 117 107
-0.096291497 0.260789514 0.764000058 143 120 106
-0.094954140 0.260789514 0.764000058 144 122 106
-0.093616754 0.260789514 0.764000058 145 123 106
-0.092279360 0.260789514 0.764000058 145 123 106
-0.090941973 0.260789514 0.764000058 145 126 107
-0.089370012 0.260106802 0.762000024 145 127 107
-0.088036150 0.260106802 0.762000024 146 127 108
-0.086702265 0.260106802 0.762000024 147 133 110
-0.085368380 0.260106802 0.762000024 145 125 112
-0.083924219 0.259765446 0.761000037 144 123 113
-0.082592078 0.259765446 0.761000037 143 122 114
-0.081259973 0.259765446 0.761000037 143 122 112
-0.080032863 0.260106802 0.762000024 141 121 110
-0.078595698 0.259765446 0.761000037 140 116 107
-0.077263571 0.259765446 0.761000037 140 115 104
-0.076031208 0.260106802 0.762000024 141 115 107
-0.074599318 0.259765446 0.761000037 141 115 107
-0.073363461 0.260106802 0.762000024 141 117 110
-0.072029576 0.260106802 0.762000024 141 118 111
-0.070695683 0.260106802 0.762000024 141 121 113
-0.069270775 0.259765446 0.761000037 142 122 111
-0.067760117 0.259082794 0.759000063 145 123 110
-0.066431478 0.259082794 0.759000063 149 126 113
-0.064931296 0.258400083 0.757000029 150 128 116
-0.063606158 0.258400083 0.757000029 151 129 117
-0.062281027 0.258400083 0.757000029 151 130 119
-0.060955919 0.258400083 0.757000029 151 131 118
-0.059630789 0.258400083 0.757000029 151 130 118
-0.058305655 0.258400083 0.757000029 151 130 115
-0.056905247 0.258058697 0.756000042 151 130 115
-0.055581860 0.258058697 0.756000042 152 131 113
-0.054258503 0.258058697 0.756000042 153 133 117
-0.052935123 0.258058697 0.756000042 154 134 122
-0.051611740 0.258058697 0.756000042 155 134 124
-0.050354876 0.258400083 0.757000029 157 136 127
-0.049029741 0.258400083 0.757000029 160 138 135
-0.047704633 0.258400083 0.757000029 163 142 143
-0.046502039 0.259082794 0.759000063 167 149 139
-0.045173407 0.259082794 0.759000063 170 151 136
-0.043844767 0.259082794 0.759000063 173 156 138
-0.042404100 0.258400083 0.757000029 172 172 141
-0.041187525 0.259082794 0.759000063 172 172 141
-0.039858893 0.259082794 0.759000063 170 198 154
-0.038530257 0.259082794 0.759000063 173 178 168
-0.037103590 0.258400083 0.757000029 177 152 158
-0.035778455 0.258400083 0.757000029 177 156 148
-0.034544379 0.259082794 0.759000063 178 164 146
-0.033215739 0.259082794 0.759000063 180 166 145
-0.031887107 0.259082794 0.759000063 182 165 150
-0.030558472 0.259082794 0.759000063 185 161 155
-0.029229838 0.259082794 0.759000063 189 168 161
-0.027901229 0.259082794 0.759000063 197 179 167
-0.026572593 0.259082794 0.759000063 205 184 175
-0.025310477 0.259765446 0.761000037 208 188 184
-0.023915322 0.259082794 0.759000063 208 188 184
-0.022586688 0.259082794 0.759000063 212 197 186
-0.021258080 0.259082794 0.759000063 214 200 189
-0.019929446 0.259082794 0.759000063 216 200 189
-0.018649824 0.259765446 0.761000037 218 202 190
-0.017317688 0.259765446 0.761000037 220 205 192
-0.015985552 0.259765446 0.761000037 221 210 194
-0.014653442 0.259765446 0.761000037 223 212 198
-0.013338811 0.260106802 0.762000024 225 215 202
-0.012004925 0.260106802 0.762000024 227 221 206
-0.010671038 0.260106802 0.762000024 230 223 211
-0.009337152 0.260106802 0.762000024 233 228 211
-0.008003292 0.260106802 0.762000024 233 228 211
-0.006669405 0.260106802 0.762000024 233 228 211
-0.005335519 0.260106802 0.762000024 234 231 219
-0.004012136 0.260789514 0.764000058 234 229 227
-0.002674749 0.260789514 0.764000058 234 232 229
-0.001340888 0.261472225 0.766000032 234 232 231
0.000000000 0.261472225 0.766000032 234 233 230
0.001340914 0.261472225 0.766000032 233 233 230
0.002685277 0.261813551 0.767000020 232 234 227
0.004027891 0.261813551 0.767000020 237 233 225
0.005370555 0.261813551 0.767000020 242 236 219
0.006713168 0.261813551 0.767000020 240 236 214
0.008076838 0.262496233 0.769000053 238 238 219
0.009398445 0.261813551 0.767000020 238 235 224
0.010741059 0.261813551 0.767000020 238 235 224
0.012146741 0.263178945 0.771000028 238 235 224
0.013496355 0.263178945 0.771000028 239 238 230
0.014884533 0.263861656 0.773000062 239 238 236
0.016258655 0.264203012 0.774000049 240 238 232
0.017590767 0.263861656 0.773000062 241 232 228
0.018968441 0.264203012 0.774000049 242 232 222
0.020323306 0.264203012 0.774000049 239 230 217
0.021650216 0.263861656 0.773000062 236 231 218
0.023033094 0.264203012 0.774000049 232 225 220
0.024387958 0.264203012 0.774000049 229 222 218
0.025742875 0.264203012 0.774000049 228 221 216
0.027097743 0.264203012 0.774000049 228 221 211
0.028452661 0.264203012 0.774000049 228 221 211
0.029807528 0.264203012 0.774000049 225 215 207
0.031162392 0.264203012 0.774000049 222 208 202
0.032601334 0.264885694 0.776000023 219 203 197
0.033959702 0.264885694 0.776000023 217 198 193
0.035318121 0.264885694 0.776000023 212 197 190
0.036676489 0.264885694 0.776000023 208 192 177
0.038132887 0.265568405 0.778000057 208 189 164
0.039494805 0.265568405 0.778000057 209 189 167
0.040751643 0.264885694 0.776000023 207 188 171
0.042110063 0.264885694 0.776000023 205 187 180
0.043468431 0.264885694 0.776000023 206 191 190
0.044711266 0.264203012 0.774000049 208 194 195
0.046066187 0.264203012 0.774000049 208 194 195
0.047421049 0.264203012 0.774000049 208 195 200
0.048775967 0.264203012 0.774000049 207 197 194
0.050130837 0.264203012 0.774000049 212 198 189
0.051485702 0.264203012 0.774000049 218 205 183
0.052840620 0.264203012 0.774000049 215 204 177
0.054195486 0.264203012 0.774000049 212 205 180
0.055550404 0.264203012 0.774000049 213 205 183
0.056831747 0.263861656 0.773000062 214 205 181
0.058184862 0.263861656 0.773000062 214 203 180
0.059383988 0.263178945 0.771000028 215 200 178
0.060733598 0.263178945 0.771000028 214 201 176
0.062083267 0.263178945 0.771000028 214 203 182
0.063268334 0.262496233 0.769000053 213 201 188
0.064614445 0.262496233 0.769000053 213 199 189
0.065789066 0.261813551 0.767000020 213 200 191
0.067131683 0.261813551 0.767000020 213 201 190
0.068474345 0.261813551 0.767000020 216 203 190
0.069816962 0.261813551 0.767000020 220 205 190
0.071159571 0.261813551 0.767000020 222 208 190
0.072407708 0.261472225 0.766000032 225 216 196
0.073748574 0.261472225 0.766000032 226 213 202
0.075089484 0.261472225 0.766000032 227 210 207
0.076430351 0.261472225 0.766000032 230 218 212
0.077771209 0.261472225 0.766000032 232 225 212
0.079112120 0.261472225 0.766000032 232 225 212
0.080452994 0.261472225 0.766000032 232 225 213
0.081793897 0.261472225 0.766000032 233 228 212
0.083134763 0.261472225 0.766000032 235 227 212
0.084475622 0.261472225 0.766000032 237 230 212
0.085816540 0.261472225 0.766000032 239 232 213
0.087157406 0.261472225 0.766000032 240 237 219
-0.214583308 0.270319253 0.796000063 252 252 247
-0.212654248 0.269640028 0.794000030 250 249 245
-0.211796492 0.270319253 0.796000063 249 247 243
-0.210403129 0.270319253 0.796000063 248 246 242
-0.209009722 0.270319253 0.796000063 246 246 240
-0.207094669 0.269640028 0.794000030 245 243 234
-0.205704749 0.269640028 0.794000030 243 239 228
-0.204314858 0.269640028 0.794000030 241 238 226
-0.202924982 0.269640028 0.794000030 238 240 224
-0.201535076 0.269640028 0.794000030 238 240 224
-0.200145170 0.269640028 0.794000030 235 237 223
-0.198755264 0.269640028 0.794000030 238 233 223
-0.197365373 0.269640028 0.794000030 242 234 222
-0.196469143 0.270319253 0.796000063 241 234 222
-0.195075735 0.270319253 0.796000063 240 235 221
-0.194168970 0.270998448 0.798000038 238 237 221
-0.192772076 0.270998448 0.798000038 237 234 217
-0.191375166 0.270998448 0.798000038 236 230 214
-0.189502150 0.270319253 0.796000063 236 231 211
-0.188108757 0.270319253 0.796000063 235 230 209
-0.187184483 0.270998448 0.798000038 235 228 207
-0.185321942 0.270319253 0.796000063 228 224 206
-0.183928534 0.270319253 0.796000063 228 224 206
-0.182535172 0.270319253 0.796000063 222 222 205
-0.181596875 0.270998448 0.798000038 223 220 204
-0.180425793 0.271338016 0.799000025 224 217 198
-0.179027140 0.271338016 0.799000025 226 217 192
-0.177628472 0.271338016 0.799000025 228 206 188
-0.176009297 0.270998448 0.798000038 221 193 183
-0.174831182 0.271338016 0.799000025 214 196 183
-0.173215494 0.270998448 0.798000038 207 192 183
-0.171818584 0.270998448 0.798000038 201 190 181
-0.169994548 0.270319253 0.796000063 197 189 178
-0.168601185 0.270319253 0.796000063 194 183 171
-0.166787654 0.269640028 0.794000030 194 183 171
-0.165397748 0.269640028 0.794000030 190 179 164
-0.164007843 0.269640028 0.794000030 186 173 159
-0.162208319 0.268960863 0.792000055 183 169 155
-0.160821959 0.268960863 0.792000055 180 168 156
-0.159435555 0.268960863 0.792000055 180 169 157
-0.158049151 0.268960863 0.792000055 180 167 155
-0.156267136 0.268281639 0.790000021 179 168 152
-0.154492125 0.267602444 0.788000047 179 169 151
-0.153112739 0.267602444 0.788000047 179 169 150
-0.151540801 0.267262876 0.787000060 180 170 152
-0.149781540 0.266583651 0.785000026 178 171 155
-0.148029298 0.265904486 0.783000052 177 169 152
-0.146658629 0.265904486 0.783000052 177 169 152
-0.144916907 0.265225261 0.781000018 176 168 149
-0.143365964 0.264885694 0.780000031 176 165 148
-0.142000571 0.264885694 0.780000031 174 166 148
-0.140635177 0.264885694 0.780000031 172 165 152
-0.138912678 0.264206499 0.778000057 168 165 156
-0.137550816 0.264206499 0.778000057 165 157 152
-0.136188924 0.264206499 0.778000057 165 155 149
-0.134827018 0.264206499 0.778000057 165 147 140
-0.133122027 0.263527274 0.776000023 161 141 132
-0.131424040 0.262848109 0.774000049 158 141 132
-0.129901126 0.262508482 0.773000062 155 144 131
-0.128547981 0.262508482 0.773000062 153 141 130
-0.127194837 0.262508482 0.773000062 153 141 130
-0.125841692 0.262508482 0.773000062 151 137 129
-0.124166451 0.261829317 0.771000028 149 133 125
-0.122816846 0.261829317 0.771000028 147 130 121
-0.121467195 0.261829317 0.771000028 145 129 116
-0.120117560 0.261829317 0.771000028 144 126 111
-0.118767917 0.261829317 0.771000028 144 125 113
-0.117418274 0.261829317 0.771000028 141 121 114
-0.116068661 0.261829317 0.771000028 138 118 117
-0.114719018 0.261829317 0.771000028 137 114 121
-0.113369375 0.261829317 0.771000028 137 134 139
-0.111729160 0.261150122 0.769000053 132 128 133
-0.110383026 0.261150122 0.769000053 130 98 109
-0.108753331 0.260470927 0.767000020 130 98 109
-0.107410692 0.260470927 0.767000020 129 102 106
-0.106068045 0.260470927 0.767000020 127 105 103
-0.104588866 0.260131329 0.766000032 125 108 102
-0.103247985 0.260131329 0.766000032 129 114 102
-0.101907119 0.260131329 0.766000032 133 113 104
-0.100566231 0.260131329 0.766000032 135 110 106
-0.099225342 0.260131329 0.766000032 137 113 108
-0.097884454 0.260131329 0.766000032 139 114 109
-0.096291497 0.259452134 0.764000058 142 119 108
-0.094954140 0.259452134 0.764000058 143 122 106
-0.093371674 0.258772939 0.762000024 144 125 105
-0.092037782 0.258772939 0.762000024 144 125 105
-0.090703897 0.258772939 0.762000024 144 129 103
-0.089370012 0.258772939 0.762000024 145 127 106
-0.087920621 0.258433342 0.761000037 147 125 109
-0.086588487 0.258433342 0.761000037 149 125 110
-0.085256353 0.258433342 0.761000037 146 120 112
-0.083924219 0.258433342 0.761000037 143 121 113
-0.082592078 0.258433342 0.761000037 143 122 115
-0.081259973 0.258433342 0.761000037 144 121 112
-0.079927832 0.258433342 0.761000037 143 122 109
-0.078595698 0.258433342 0.761000037 142 118 105
-0.077263571 0.258433342 0.761000037 142 114 102
-0.076031208 0.258772939 0.762000024 142 117 106
-0.074599318 0.258433342 0.761000037 142 117 106
-0.073267184 0.258433342 0.761000037 142 123 110
-0.072029576 0.258772939 0.762000024 142 122 113
-0.070602909 0.258433342 0.761000037 142 124 115
-0.069088727 0.257754177 0.759000063 143 124 114
-0.067760117 0.257754177 0.759000063 145 126 113
-0.066431478 0.257754177 0.759000063 148 128 117
-0.064931296 0.257074952 0.757000029 150 130 120
-0.063606158 0.257074952 0.757000029 153 130 121
-0.062281027 0.257074952 0.757000029 152 133 122
-0.060875397 0.256735355 0.756000042 151 131 120
-0.059630789 0.257074952 0.757000029 151 131 118
-0.058305655 0.257074952 0.757000029 151 132 117
-0.056905247 0.256735355 0.756000042 151 132 117
-0.055581860 0.256735355 0.756000042 151 133 117
-0.054258503 0.256735355 0.756000042 152 134 120
-0.052935123 0.256735355 0.756000042 153 135 124
-0.051611740 0.256735355 0.756000042 155 134 126
-0.050288357 0.256735355 0.756000042 158 138 129
-0.049029741 0.257074952 0.757000029 161 143 137
-0.047704633 0.257074952 0.757000029 166 149 146
-0.046379499 0.257074952 0.757000029 171 153 153
-0.045054369 0.257074952 0.757000029 177 157 160
-0.043729231 0.257074952 0.757000029 183 176 155
-0.042404100 0.257074952 0.757000029 177 196 150
-0.041078992 0.257074952 0.757000029 177 196 150
-0.039753858 0.257074952 0.757000029 171 181 155
-0.038428724 0.257074952 0.757000029 176 163 160
-0.037103590 0.257074952 0.757000029 181 165 159
-0.035778455 0.257074952 0.757000029 186 173 159
-0.034453351 0.257074952 0.757000029 192 175 159
-0.033128217 0.257074952 0.757000029 189 179 159
-0.031887107 0.257754177 0.759000063 187 169 154
-0.030477948 0.257074952 0.757000029 189 160 148
-0.029229838 0.257754177 0.759000063 191 175 159
-0.027901229 0.257754177 0.759000063 200 196 170
-0.026572593 0.257754177 0.759000063 209 191 179
-0.025243960 0.257754177 0.759000063 215 194 188
