ply
format ascii 1.0
comment INESC
element vertex 981
property float x
property float y
property float z
property uchar red
property uchar green
property uchar blue
end_header
0.015997810 0.056607656 0.703000009 241 239 241
0.017228441 0.056607656 0.703000009 241 240 240
0.018459022 0.056607656 0.703000009 239 242 239
0.019745670 0.056768700 0.705000043 238 239 237
0.020979755 0.056768700 0.705000043 237 237 235
0.022245346 0.056849223 0.706000030 236 235 233
0.023481227 0.056849223 0.706000030 234 233 231
0.024787080 0.057010267 0.708000004 233 230 224
0.026063228 0.057090797 0.709000051 228 223 217
0.027304312 0.057090797 0.709000051 228 223 217
0.028625920 0.057251837 0.711000025 223 221 214
0.029870553 0.057251837 0.711000025 218 218 211
0.031158902 0.057332359 0.712000012 213 213 209
0.032405287 0.057332359 0.712000012 209 210 207
0.033698887 0.057412881 0.713000059 206 206 202
0.035045002 0.057573926 0.715000033 200 205 198
0.036296636 0.057573926 0.715000033 195 196 193
0.037705775 0.057815500 0.718000054 192 195 188
0.038962662 0.057815500 0.718000054 190 190 186
0.040387549 0.058057066 0.721000016 187 189 185
0.041707411 0.058137596 0.722000062 185 183 183
0.043090329 0.058298640 0.724000037 185 183 183
0.044541478 0.058540206 0.727000058 183 180 181
0.045940153 0.058701254 0.729000032 182 176 176
0.047281016 0.058781769 0.730000019 182 176 176
0.048758421 0.059023343 0.733000040 179 173 171
0.050178103 0.059184387 0.735000014 176 173 172
0.051534727 0.059264917 0.736000061 174 172 173
0.052966662 0.059425961 0.738000035 173 173 177
0.054332037 0.059506483 0.739000022 173 176 181
0.055776171 0.059667528 0.741000056 174 171 180
-0.164984629 0.059394453 0.754000008 245 241 235
-0.163230628 0.059236906 0.752000034 246 241 231
-0.161698937 0.059158131 0.751000047 241 240 228
-0.159957185 0.059000585 0.749000013 237 240 230
-0.158222467 0.058843043 0.747000039 234 244 233
-0.156704783 0.058764271 0.746000051 232 236 231
-0.154982269 0.058606729 0.744000018 234 234 230
-0.153473333 0.058527954 0.743000031 236 234 230
-0.152172714 0.058527954 0.743000031 236 234 230
-0.150465995 0.058370408 0.741000056 235 234 230
-0.148564950 0.058134090 0.738000035 235 232 226
-0.147273079 0.058134090 0.738000035 231 230 223
-0.145585597 0.057976548 0.736000061 228 230 222
-0.144101158 0.057897773 0.735000014 229 228 221
-0.142425954 0.057740230 0.733000040 231 230 222
-0.140950263 0.057661455 0.732000053 230 234 222
-0.139668897 0.057661455 0.732000053 230 228 219
-0.138387531 0.057661455 0.732000053 228 227 215
-0.136731550 0.057503909 0.730000019 227 224 213
-0.135268152 0.057425138 0.729000032 216 215 208
-0.133624434 0.057267595 0.727000058 216 215 208
-0.131987706 0.057110049 0.725000024 223 218 221
-0.130718589 0.057110049 0.725000024 224 224 218
-0.129449472 0.057110049 0.725000024 224 222 216
-0.128003582 0.057031281 0.724000037 225 221 216
-0.126736224 0.057031281 0.724000037 225 221 216
-0.125122249 0.056873735 0.722000062 225 221 214
-0.123686828 0.056794956 0.721000016 225 220 212
-0.122085109 0.056637414 0.719000041 225 222 208
-0.120826520 0.056637414 0.719000041 225 219 205
-0.119567916 0.056637414 0.719000041 225 219 207
-0.118144758 0.056558646 0.718000054 224 219 209
-0.116887897 0.056558646 0.718000054 224 219 209
-0.115631029 0.056558646 0.718000054 224 219 209
-0.114055589 0.056401096 0.716000021 224 220 210
-0.112644672 0.056322321 0.715000033 224 220 208
-0.111393072 0.056322321 0.715000033 225 219 207
-0.109833367 0.056164779 0.713000059 225 219 203
-0.108585253 0.056164779 0.713000059 221 216 200
-0.107337169 0.056164779 0.713000059 218 209 200
-0.105940260 0.056086004 0.712000012 218 210 201
-0.104693905 0.056086004 0.712000012 219 210 201
-0.103447542 0.056086004 0.712000012 215 206 201
-0.102201179 0.056086004 0.712000012 212 206 203
-0.100954846 0.056086004 0.712000012 212 207 205
-0.099708483 0.056086004 0.712000012 212 205 203
-0.098462120 0.056086004 0.712000012 212 205 203
-0.097215764 0.056086004 0.712000012 211 206 202
-0.095834620 0.056007236 0.711000025 211 206 196
-0.094590031 0.056007236 0.711000025 211 206 190
-0.093345419 0.056007236 0.711000025 211 205 185
-0.091841742 0.055849694 0.709000051 211 202 181
-0.090600632 0.055849694 0.709000051 212 202 184
-0.089359522 0.055849694 0.709000051 209 201 187
-0.088118434 0.055849694 0.709000051 207 199 187
-0.086754784 0.055770915 0.708000004 207 198 187
-0.085515425 0.055770915 0.708000004 208 196 187
-0.084276058 0.055770915 0.708000004 207 198 187
-0.083036706 0.055770915 0.708000004 207 198 187
-0.081797376 0.055770915 0.708000004 206 197 186
-0.080558017 0.055770915 0.708000004 205 196 185
-0.079318650 0.055770915 0.708000004 205 195 184
-0.078079298 0.055770915 0.708000004 204 193 183
-0.076839931 0.055770915 0.708000004 204 192 179
-0.075387046 0.055613369 0.706000030 202 193 175
-0.074151188 0.055613369 0.706000030 200 194 176
-0.072812051 0.055534601 0.705000043 200 195 177
-0.071577944 0.055534601 0.705000043 201 196 181
-0.070343837 0.055534601 0.705000043 200 196 185
-0.069109753 0.055534601 0.705000043 200 197 186
-0.067683086 0.055377051 0.703000009 200 195 187
-0.066452481 0.055377051 0.703000009 200 195 187
-0.065221876 0.055377051 0.703000009 200 196 185
-0.063991264 0.055377051 0.703000009 201 197 183
-0.062760681 0.055377051 0.703000009 203 198 182
-0.061442554 0.055298280 0.702000022 203 199 182
-0.060213696 0.055298280 0.702000022 203 200 186
-0.058984838 0.055298280 0.702000022 204 200 191
-0.057755984 0.055298280 0.702000022 205 198 188
-0.056366108 0.055140734 0.700000048 206 200 185
-0.055140756 0.055140734 0.700000048 206 203 185
-0.053915400 0.055140734 0.700000048 207 203 186
-0.052614775 0.055061966 0.699000061 207 203 189
-0.051391169 0.055061966 0.699000061 207 203 189
-0.050167590 0.055061966 0.699000061 208 204 192
-0.048943985 0.055061966 0.699000061 209 204 194
-0.047720380 0.055061966 0.699000061 210 203 197
-0.046496779 0.055061966 0.699000061 212 204 196
-0.045208406 0.054983191 0.698000014 212 206 196
-0.043986574 0.054983191 0.698000014 213 209 193
-0.042764723 0.054983191 0.698000014 213 207 190
-0.041602384 0.055061966 0.699000061 214 207 192
-0.040378779 0.055061966 0.699000061 213 208 195
-0.039099157 0.054983191 0.698000014 213 209 196
-0.037931595 0.055061966 0.699000061 214 207 198
-0.036655474 0.054983191 0.698000014 215 207 201
-0.035433620 0.054983191 0.698000014 215 207 201
-0.034211766 0.054983191 0.698000014 215 211 204
-0.032989912 0.054983191 0.698000014 215 213 208
-0.031768080 0.054983191 0.698000014 218 217 212
-0.030546227 0.054983191 0.698000014 222 217 215
-0.029324375 0.054983191 0.698000014 224 221 218
-0.028102521 0.054983191 0.698000014 227 226 219
-0.026880667 0.054983191 0.698000014 231 227 221
-0.025658835 0.054983191 0.698000014 235 231 222
-0.024436982 0.054983191 0.698000014 236 232 224
-0.023215130 0.054983191 0.698000014 236 234 225
-0.021993276 0.054983191 0.698000014 238 237 227
-0.020771420 0.054983191 0.698000014 241 242 233
-0.019549590 0.054983191 0.698000014 241 242 233
-0.018327737 0.054983191 0.698000014 241 241 240
-0.017105883 0.054983191 0.698000014 241 241 241
-0.015884029 0.054983191 0.698000014 241 241 242
-0.014662175 0.054983191 0.698000014 242 242 242
-0.013440344 0.054983191 0.698000014 242 243 242
-0.012218491 0.054983191 0.698000014 242 243 243
-0.010965129 0.054825652 0.696000040 242 244 244
-0.009746776 0.054825652 0.696000040 242 243 244
-0.008528423 0.054825652 0.696000040 243 245 245
-0.007310093 0.054825652 0.696000040 243 246 244
-0.006091741 0.054825652 0.696000040 244 245 244
-0.004873388 0.054825652 0.696000040 244 245 244
-0.003655035 0.054825652 0.696000040 244 245 244
-0.002436682 0.054825652 0.696000040 244 246 245
-0.001221854 0.054983191 0.698000014 244 247 245
0.000000000 0.054983191 0.698000014 243 246 246
0.001221877 0.054983191 0.698000014 242 246 246
0.002443708 0.054983191 0.698000014 242 246 246
0.003665538 0.054983191 0.698000014 243 247 244
0.004894417 0.055061966 0.699000061 243 246 242
0.006117998 0.055061966 0.699000061 243 244 242
0.007341626 0.055061966 0.699000061 241 243 242
0.008565207 0.055061966 0.699000061 239 239 240
0.009802792 0.055140734 0.700000048 240 240 239
0.011028169 0.055140734 0.700000048 240 240 239
0.012253501 0.055140734 0.700000048 241 241 240
0.013517389 0.055298280 0.702000022 241 242 242
0.014746222 0.055298280 0.702000022 241 243 241
0.015997810 0.055377051 0.703000009 241 241 241
0.017228441 0.055377051 0.703000009 241 242 241
0.018459022 0.055377051 0.703000009 240 241 241
0.019689653 0.055377051 0.703000009 238 238 238
0.020979755 0.055534601 0.705000043 236 236 235
0.022213839 0.055534601 0.705000043 234 234 233
0.023481227 0.055613369 0.706000030 232 232 232
0.024787080 0.055770915 0.708000004 230 231 225
0.026063228 0.055849694 0.709000051 227 225 219
0.027304312 0.055849694 0.709000051 227 225 219
0.028625920 0.056007236 0.711000025 224 222 218
0.029870553 0.056007236 0.711000025 218 217 217
0.031158902 0.056086004 0.712000012 213 209 214
0.032405287 0.056086004 0.712000012 210 208 212
0.033698887 0.056164779 0.713000059 207 206 203
0.035045002 0.056322321 0.715000033 202 201 194
0.036347404 0.056401096 0.716000021 197 196 192
0.037705775 0.056558646 0.718000054 195 194 190
0.038962662 0.056558646 0.718000054 192 189 190
0.040387549 0.056794956 0.721000016 190 189 190
0.041707411 0.056873735 0.722000062 189 188 188
0.043090329 0.057031281 0.724000037 189 188 188
0.044418942 0.057110049 0.725000024 186 185 186
0.045940153 0.057425138 0.729000032 184 183 183
0.047281016 0.057503909 0.730000019 184 183 183
0.048758421 0.057740230 0.733000040 181 181 180
0.050178103 0.057897773 0.735000014 179 180 177
0.051534727 0.057976548 0.736000061 177 179 175
0.053038433 0.058212865 0.739000022 176 179 178
0.054479074 0.058370408 0.741000056 176 179 181
0.056152534 0.058764271 0.746000051 176 178 182
-0.164984629 0.058074575 0.754000008 245 241 235
-0.163230628 0.057920534 0.752000034 246 241 231
-0.161698937 0.057843510 0.751000047 241 240 228
-0.159957185 0.057689462 0.749000013 237 240 230
-0.158222467 0.057535421 0.747000039 234 244 233
-0.156704783 0.057458401 0.746000051 232 236 231
-0.154982269 0.057304356 0.744000018 234 234 230
-0.153473333 0.057227332 0.743000031 236 234 230
-0.151763096 0.057073291 0.741000056 236 234 230
-0.150465995 0.057073291 0.741000056 235 234 230
-0.148766249 0.056919243 0.739000022 235 232 226
-0.147273079 0.056842223 0.738000035 231 230 223
-0.145585597 0.056688182 0.736000061 228 230 222
-0.144101158 0.056611158 0.735000014 229 228 221
-0.142425954 0.056457117 0.733000040 231 230 222
-0.140950263 0.056380093 0.732000053 230 234 222
-0.139668897 0.056380093 0.732000053 230 228 219
-0.138387531 0.056380093 0.732000053 228 227 215
-0.136544243 0.056149025 0.729000032 221 221 211
-0.135268152 0.056149025 0.729000032 216 215 208
-0.133624434 0.055994984 0.727000058 216 215 208
-0.131987706 0.055840939 0.725000024 218 200 205
-0.130718589 0.055840939 0.725000024 221 215 209
-0.129449472 0.055840939 0.725000024 222 222 212
-0.128003582 0.055763919 0.724000037 224 220 212
-0.126736224 0.055763919 0.724000037 224 220 211
-0.125122249 0.055609874 0.722000062 224 219 209
-0.123686828 0.055532847 0.721000016 223 219 208
-0.122085109 0.055378806 0.719000041 223 219 205
-0.120826520 0.055378806 0.719000041 223 219 202
-0.119401619 0.055301785 0.718000054 224 219 202
-0.118144758 0.055301785 0.718000054 223 220 202
-0.116887897 0.055301785 0.718000054 222 219 204
-0.115631029 0.055301785 0.718000054 222 219 204
-0.114055589 0.055147741 0.716000021 222 217 207
-0.112644672 0.055070713 0.715000033 222 216 205
-0.111393072 0.055070713 0.715000033 225 214 203
-0.109833367 0.054916672 0.713000059 228 215 200
-0.108585253 0.054916672 0.713000059 223 218 197
-0.107337169 0.054916672 0.713000059 219 211 196
-0.105940260 0.054839648 0.712000012 220 211 195
-0.104693905 0.054839648 0.712000012 221 206 194
-0.103447542 0.054839648 0.712000012 217 199 193
-0.102201179 0.054839648 0.712000012 214 204 194
-0.100954846 0.054839648 0.712000012 213 206 196
-0.099708483 0.054839648 0.712000012 212 205 195
-0.098462120 0.054839648 0.712000012 212 205 195
-0.097215764 0.054839648 0.712000012 210 205 195
-0.095969401 0.054839648 0.712000012 209 206 192
-0.094590031 0.054762632 0.711000025 209 209 189
-0.093345419 0.054762632 0.711000025 209 204 184
-0.092100807 0.054762632 0.711000025 209 200 180
-0.090856194 0.054762632 0.711000025 209 201 182
-0.089359522 0.054608587 0.709000051 209 203 184
-0.088118434 0.054608587 0.709000051 209 200 184
-0.086877331 0.054608587 0.709000051 207 195 183
-0.085515425 0.054531563 0.708000004 206 196 184
-0.084276058 0.054531563 0.708000004 205 198 185
-0.083036706 0.054531563 0.708000004 205 198 185
-0.081912912 0.054608587 0.709000051 205 196 185
-0.080558017 0.054531563 0.708000004 203 196 185
-0.079318650 0.054531563 0.708000004 202 194 184
-0.078079298 0.054531563 0.708000004 203 191 183
-0.076839931 0.054531563 0.708000004 204 192 181
-0.075600602 0.054531563 0.708000004 203 192 180
-0.074151188 0.054377519 0.706000030 203 194 180
-0.072915323 0.054377519 0.706000030 202 195 181
-0.071577944 0.054300502 0.705000043 202 196 183
-0.070443608 0.054377519 0.706000030 202 197 186
-0.069109753 0.054300502 0.705000043 202 197 186
-0.067875646 0.054300502 0.705000043 201 197 186
-0.066452481 0.054146454 0.703000009 201 197 186
-0.065221876 0.054146454 0.703000009 201 198 184
-0.063991264 0.054146454 0.703000009 202 198 182
-0.062760681 0.054146454 0.703000009 204 199 183
-0.061530080 0.054146454 0.703000009 203 203 185
-0.060213696 0.054069430 0.702000022 203 202 187
-0.058984838 0.054069430 0.702000022 204 203 189
-0.057755984 0.054069430 0.702000022 206 201 186
-0.056366108 0.053915389 0.700000048 206 201 184
-0.055140756 0.053915389 0.700000048 207 202 185
-0.053915400 0.053915389 0.700000048 209 203 187
-0.052690044 0.053915389 0.700000048 211 204 190
-0.051464692 0.053915389 0.700000048 211 204 190
-0.050167590 0.053838369 0.699000061 210 205 194
-0.048943985 0.053838369 0.699000061 209 204 196
-0.047720380 0.053838369 0.699000061 210 204 198
-0.046496779 0.053838369 0.699000061 211 206 197
-0.045208406 0.053761344 0.698000014 211 209 196
-0.043986574 0.053761344 0.698000014 212 207 193
-0.042764723 0.053761344 0.698000014 212 205 191
-0.041542865 0.053761344 0.698000014 212 205 193
-0.040321011 0.053761344 0.698000014 211 206 195
-0.039099157 0.053761344 0.698000014 211 207 197
-0.037877329 0.053761344 0.698000014 213 207 200
-0.036707990 0.053838369 0.699000061 216 210 201
-0.035433620 0.053761344 0.698000014 216 210 201
-0.034211766 0.053761344 0.698000014 217 215 202
-0.032989912 0.053761344 0.698000014 218 218 207
-0.031768080 0.053761344 0.698000014 221 223 212
-0.030546227 0.053761344 0.698000014 224 221 216
-0.029240351 0.053607304 0.696000040 226 223 220
-0.028021999 0.053607304 0.696000040 228 226 223
-0.026803646 0.053607304 0.696000040 233 227 227
-0.025658835 0.053761344 0.698000014 238 232 228
-0.024436982 0.053761344 0.698000014 237 235 229
-0.023215130 0.053761344 0.698000014 236 236 230
-0.021993276 0.053761344 0.698000014 238 240 232
-0.020771420 0.053761344 0.698000014 241 241 235
-0.019549590 0.053761344 0.698000014 241 241 235
-0.018327737 0.053761344 0.698000014 241 242 239
-0.017105883 0.053761344 0.698000014 241 241 240
-0.015884029 0.053761344 0.698000014 241 242 241
-0.014620163 0.053607304 0.696000040 242 242 241
-0.013401834 0.053607304 0.696000040 243 243 241
-0.012218491 0.053761344 0.698000014 244 244 242
-0.010965129 0.053607304 0.696000040 243 245 244
-0.009746776 0.053607304 0.696000040 243 244 244
-0.008528423 0.053607304 0.696000040 243 247 245
-0.007310093 0.053607304 0.696000040 243 246 244
-0.006091741 0.053607304 0.696000040 244 247 244
-0.004873388 0.053607304 0.696000040 244 247 244
-0.003655035 0.053607304 0.696000040 246 246 244
-0.002436682 0.053607304 0.696000040 245 247 245
-0.001221854 0.053761344 0.698000014 245 246 244
0.000000000 0.053761344 0.698000014 242 246 243
0.001221877 0.053761344 0.698000014 239 245 243
0.002443708 0.053761344 0.698000014 241 245 243
0.003665538 0.053761344 0.698000014 244 245 243
0.004887415 0.053761344 0.698000014 244 247 244
0.006109246 0.053761344 0.698000014 244 244 243
0.007341626 0.053838369 0.699000061 242 245 242
0.008565207 0.053838369 0.699000061 241 242 241
0.009802792 0.053915389 0.700000048 241 242 240
0.011028169 0.053915389 0.700000048 241 242 240
0.012253501 0.053915389 0.700000048 241 242 240
0.013517389 0.054069430 0.702000022 241 243 240
0.014746222 0.054069430 0.702000022 242 242 240
0.015997810 0.054146454 0.703000009 242 242 241
0.017228441 0.054146454 0.703000009 242 242 240
0.018459022 0.054146454 0.703000009 240 242 240
0.019689653 0.054146454 0.703000009 239 239 237
0.020979755 0.054300502 0.705000043 235 237 235
0.022213839 0.054300502 0.705000043 232 235 233
0.023481227 0.054377519 0.706000030 230 232 231
0.024787080 0.054531563 0.708000004 228 230 226
0.026063228 0.054608587 0.709000051 227 225 222
0.027304312 0.054608587 0.709000051 227 225 222
0.028625920 0.054762632 0.711000025 226 223 221
0.029870553 0.054762632 0.711000025 219 222 220
0.031158902 0.054839648 0.712000012 213 212 217
0.032405287 0.054839648 0.712000012 211 209 215
0.033698887 0.054916672 0.713000059 209 204 206
0.035045002 0.055070713 0.715000033 204 200 198
0.036347404 0.055147741 0.716000021 200 198 195
0.037705775 0.055301785 0.718000054 197 198 192
0.038962662 0.055301785 0.718000054 195 192 191
0.040387549 0.055532847 0.721000016 194 191 190
0.041707411 0.055609874 0.722000062 193 190 188
0.043149848 0.055840939 0.725000024 193 190 188
0.044541478 0.055994984 0.727000058 189 189 186
0.045940153 0.056149025 0.729000032 186 187 185
0.047216251 0.056149025 0.729000032 184 188 183
0.048691899 0.056380093 0.732000053 184 188 183
0.050178103 0.056611158 0.735000014 183 184 183
0.051674765 0.056842223 0.738000035 181 186 182
0.053181976 0.057073291 0.741000056 179 182 184
0.054699637 0.057304356 0.744000018 178 183 185
0.056227803 0.057535421 0.747000039 178 180 187
0.057843547 0.057843510 0.751000047 177 178 190
0.059236925 0.057920534 0.752000034 177 178 189
0.060553331 0.057920534 0.752000034 172 178 188
-0.164984629 0.056754697 0.754000008 242 243 237
-0.163230628 0.056604158 0.752000034 241 243 232
-0.161698937 0.056528885 0.751000047 241 240 227
-0.159957185 0.056378338 0.749000013 241 239 230
-0.158222467 0.056227796 0.747000039 238 238 234
-0.156704783 0.056152530 0.746000051 235 234 232
-0.154982269 0.056001984 0.744000018 235 234 230
-0.153473333 0.055926710 0.743000031 236 235 232
-0.152172714 0.055926710 0.743000031 236 235 232
-0.150465995 0.055776171 0.741000056 235 234 234
-0.148766249 0.055625629 0.739000022 235 232 230
-0.147273079 0.055550355 0.738000035 232 231 226
-0.145585597 0.055399816 0.736000061 230 230 223
-0.144101158 0.055324543 0.735000014 230 229 220
-0.142425954 0.055174001 0.733000040 231 229 221
-0.140950263 0.055098727 0.732000053 230 229 222
-0.139668897 0.055098727 0.732000053 230 229 218
-0.138387531 0.055098727 0.732000053 228 227 215
-0.136731550 0.054948181 0.730000019 227 225 208
-0.135268152 0.054872911 0.729000032 221 219 195
-0.133624434 0.054722372 0.727000058 221 219 195
-0.132351816 0.054722372 0.727000058 220 213 190
-0.130718589 0.054571826 0.725000024 220 214 199
-0.129449472 0.054571826 0.725000024 221 217 209
-0.128003582 0.054496557 0.724000037 223 218 208
-0.126736224 0.054496557 0.724000037 222 219 207
-0.125122249 0.054346014 0.722000062 221 219 205
-0.123686828 0.054270737 0.721000016 220 217 204
-0.122424707 0.054270737 0.721000016 220 218 201
-0.120826520 0.054120194 0.719000041 221 218 199
-0.119567916 0.054120194 0.719000041 222 218 197
-0.118309297 0.054120194 0.719000041 220 219 195
-0.116887897 0.054044928 0.718000054 219 220 199
-0.115631029 0.054044928 0.718000054 219 220 199
-0.114055589 0.053894382 0.716000021 219 215 204
-0.112802230 0.053894382 0.716000021 218 213 202
-0.111393072 0.053819112 0.715000033 220 212 200
-0.109833367 0.053668570 0.713000059 221 209 197
-0.108585253 0.053668570 0.713000059 218 211 194
-0.107337169 0.053668570 0.713000059 216 209 192
-0.105940260 0.053593297 0.712000012 216 207 190
-0.104693905 0.053593297 0.712000012 216 206 188
-0.103447542 0.053593297 0.712000012 214 203 186
-0.102201179 0.053593297 0.712000012 212 206 186
-0.101096638 0.053668570 0.713000059 212 205 187
-0.099708483 0.053593297 0.712000012 211 205 187
-0.098462120 0.053593297 0.712000012 211 205 187
-0.097215764 0.053593297 0.712000012 210 204 188
-0.095969401 0.053593297 0.712000012 209 205 188
-0.094723068 0.053593297 0.712000012 208 205 189
-0.093345419 0.053518027 0.711000025 208 204 184
-0.092100807 0.053518027 0.711000025 208 201 179
-0.090856194 0.053518027 0.711000025 209 202 180
-0.089359522 0.053367488 0.709000051 208 202 182
-0.088118434 0.053367488 0.709000051 208 203 181
-0.086877331 0.053367488 0.709000051 206 198 180
-0.085515425 0.053292207 0.708000004 204 195 182
-0.084276058 0.053292207 0.708000004 205 197 184
-0.083036706 0.053292207 0.708000004 205 197 184
-0.081797376 0.053292207 0.708000004 205 196 184
-0.080558017 0.053292207 0.708000004 204 197 185
-0.079318650 0.053292207 0.708000004 203 194 184
-0.078079298 0.053292207 0.708000004 204 194 183
-0.076839931 0.053292207 0.708000004 205 194 184
-0.075600602 0.053292207 0.708000004 204 196 186
-0.074151188 0.053141668 0.706000030 203 195 185
-0.072915323 0.053141668 0.706000030 203 195 185
-0.071679473 0.053141668 0.706000030 203 197 186
-0.070443608 0.053141668 0.706000030 202 197 188
-0.069109753 0.053066399 0.705000043 201 197 186
-0.067875646 0.053066399 0.705000043 201 198 185
-0.066641539 0.053066399 0.705000043 201 198 185
-0.065221876 0.052915853 0.703000009 201 201 183
-0.063991264 0.052915853 0.703000009 202 201 182
-0.062760681 0.052915853 0.703000009 203 200 185
-0.061530080 0.052915853 0.703000009 203 202 188
-0.060213696 0.052840579 0.702000022 203 202 188
-0.058984838 0.052840579 0.702000022 205 202 188
-0.057755984 0.052840579 0.702000022 207 203 185
-0.056527153 0.052840579 0.702000022 207 202 183
-0.055298299 0.052840579 0.702000022 207 203 185
-0.053915400 0.052690037 0.700000048 209 204 188
-0.052690044 0.052690037 0.700000048 210 206 192
-0.051464692 0.052690037 0.700000048 210 206 192
-0.050167590 0.052614771 0.699000061 209 205 197
-0.048943985 0.052614771 0.699000061 209 205 198
-0.047720380 0.052614771 0.699000061 209 205 200
-0.046430260 0.052539498 0.698000014 210 207 198
-0.045208406 0.052539498 0.698000014 210 206 197
-0.043986574 0.052539498 0.698000014 211 205 194
-0.042764723 0.052539498 0.698000014 211 205 192
-0.041542865 0.052539498 0.698000014 211 203 193
-0.040321011 0.052539498 0.698000014 213 206 195
-0.039099157 0.052539498 0.698000014 214 207 199
-0.037877329 0.052539498 0.698000014 216 209 203
-0.036707990 0.052614771 0.699000061 218 211 202
-0.035433620 0.052539498 0.698000014 218 211 202
-0.034211766 0.052539498 0.698000014 219 217 201
-0.032989912 0.052539498 0.698000014 220 222 206
-0.031768080 0.052539498 0.698000014 222 224 212
-0.030458704 0.052388955 0.696000040 224 223 217
-0.029240351 0.052388955 0.696000040 228 226 222
-0.028021999 0.052388955 0.696000040 231 231 228
-0.026803646 0.052388955 0.696000040 234 233 234
-0.025585316 0.052388955 0.696000040 238 238 234
-0.024366964 0.052388955 0.696000040 237 237 234
-0.023148609 0.052388955 0.696000040 237 238 235
-0.021930259 0.052388955 0.696000040 239 240 237
-0.020711904 0.052388955 0.696000040 242 241 237
-0.019549590 0.052539498 0.698000014 242 241 237
-0.018275222 0.052388955 0.696000040 241 242 238
-0.017056869 0.052388955 0.696000040 241 242 239
-0.015838517 0.052388955 0.696000040 242 242 240
-0.014620163 0.052388955 0.696000040 243 243 240
-0.013401834 0.052388955 0.696000040 243 244 241
-0.012183482 0.052388955 0.696000040 243 245 242
-0.010965129 0.052388955 0.696000040 243 244 244
-0.009746776 0.052388955 0.696000040 242 243 244
-0.008528423 0.052388955 0.696000040 243 245 245
-0.007310093 0.052388955 0.696000040 243 246 244
-0.006091741 0.052388955 0.696000040 244 246 244
-0.004873388 0.052388955 0.696000040 244 246 244
-0.003655035 0.052388955 0.696000040 245 245 245
-0.002433181 0.052313682 0.695000052 244 246 246
-0.001221854 0.052539498 0.698000014 244 247 243
0.000000000 0.052388955 0.696000040 243 245 241
0.001221877 0.052539498 0.698000014 242 243 241
0.002443708 0.052539498 0.698000014 242 244 241
0.003665538 0.052539498 0.698000014 243 243 243
0.004887415 0.052539498 0.698000014 243 244 246
0.006109246 0.052539498 0.698000014 243 243 244
0.007341626 0.052614771 0.699000061 242 243 243
0.008565207 0.052614771 0.699000061 242 244 242
0.009788788 0.052614771 0.699000061 241 244 242
0.011028169 0.052690037 0.700000048 241 244 242
0.012253501 0.052690037 0.700000048 241 244 240
0.013478879 0.052690037 0.700000048 241 243 239
0.014746222 0.052840579 0.702000022 241 243 240
0.015975054 0.052840579 0.702000022 242 243 241
0.017203933 0.052840579 0.702000022 243 243 240
0.018432766 0.052840579 0.702000022 241 242 239
0.019689653 0.052915853 0.703000009 240 240 237
0.020920236 0.052915853 0.703000009 236 238 236
0.022213839 0.053066399 0.705000043 233 239 233
0.023447968 0.053066399 0.705000043 231 234 230
0.024717061 0.053141668 0.706000030 229 234 228
0.026026463 0.053292207 0.708000004 227 227 226
0.027304312 0.053367488 0.709000051 227 227 226
0.028625920 0.053518027 0.711000025 225 223 225
0.029870553 0.053518027 0.711000025 220 219 224
0.031158902 0.053593297 0.712000012 215 209 221
0.032405287 0.053593297 0.712000012 211 207 218
0.033698887 0.053668570 0.713000059 208 201 210
0.035045002 0.053819112 0.715000033 205 201 203
0.036347404 0.053894382 0.716000021 201 201 198
0.037705775 0.054044928 0.718000054 199 197 194
0.039016925 0.054120194 0.719000041 196 193 192
0.040387549 0.054270737 0.721000016 194 192 190
0.041822940 0.054496557 0.724000037 193 192 188
0.043149848 0.054571826 0.725000024 193 192 188
0.044418942 0.054571826 0.725000024 191 190 187
0.045814119 0.054722372 0.727000058 189 191 187
0.047216251 0.054872911 0.729000032 186 186 187
0.048558861 0.054948181 0.730000019 186 186 187
0.050246377 0.055399816 0.736000061 184 185 188
0.051744785 0.055625629 0.739000022 182 185 190
0.053325515 0.055926710 0.743000031 181 183 190
0.054846682 0.056152530 0.746000051 179 183 190
0.056227803 0.056227796 0.747000039 177 183 193
0.057689503 0.056378338 0.749000013 176 181 196
0.059236925 0.056604158 0.752000034 174 181 194
0.060714375 0.056754697 0.754000008 171 178 193
0.062034234 0.056754697 0.754000008 171 178 193
0.063354090 0.056754697 0.754000008 168 177 202
-0.166304529 0.055434823 0.754000008 242 242 230
-0.164547026 0.055287786 0.752000034 239 246 232
-0.163013563 0.055214260 0.751000047 236 243 230
-0.161698937 0.055214260 0.751000047 240 240 228
-0.159957185 0.055067215 0.749000013 245 239 230
-0.158222467 0.054920174 0.747000039 241 237 232
-0.156704783 0.054846659 0.746000051 238 236 232
-0.154982269 0.054699611 0.744000018 237 235 232
-0.153473333 0.054626089 0.743000031 236 235 229
-0.152172714 0.054626089 0.743000031 236 235 229
-0.150465995 0.054479048 0.741000056 235 235 227
-0.148766249 0.054332010 0.739000022 235 234 226
-0.147273079 0.054258488 0.738000035 233 235 225
-0.145585597 0.054111447 0.736000061 232 232 224
-0.144101158 0.054037925 0.735000014 231 230 222
-0.142425954 0.053890884 0.733000040 231 228 221
-0.140950263 0.053817362 0.732000053 231 227 221
-0.139668897 0.053817362 0.732000053 231 226 215
-0.138387531 0.053817362 0.732000053 229 227 210
-0.136731550 0.053670317 0.730000019 227 225 207
-0.135268152 0.053596798 0.729000032 226 221 200
-0.133624434 0.053449757 0.727000058 226 221 200
-0.132351816 0.053449757 0.727000058 222 219 197
-0.131079197 0.053449757 0.727000058 219 216 200
-0.129449472 0.053302713 0.725000024 220 216 203
-0.128003582 0.053229194 0.724000037 222 217 205
-0.126736224 0.053229194 0.724000037 220 219 207
-0.125122249 0.053082157 0.722000062 218 216 207
-0.123686828 0.053008631 0.721000016 218 214 208
-0.122424707 0.053008631 0.721000016 218 216 206
-0.120826520 0.052861586 0.719000041 219 217 205
-0.119567916 0.052861586 0.719000041 220 217 200
-0.118309297 0.052861586 0.719000041 218 218 195
-0.116887897 0.052788071 0.718000054 217 216 196
-0.115631029 0.052788071 0.718000054 217 216 196
-0.114055589 0.052641023 0.716000021 216 212 198
-0.112802230 0.052641023 0.716000021 215 210 198
-0.111393072 0.052567504 0.715000033 215 213 199
-0.109833367 0.052420463 0.713000059 215 210 197
-0.108585253 0.052420463 0.713000059 214 210 195
-0.107337169 0.052420463 0.713000059 213 207 192
-0.106089056 0.052420463 0.713000059 212 202 189
-0.104693905 0.052346941 0.712000012 212 205 188
-0.103447542 0.052346941 0.712000012 211 203 188
-0.102201179 0.052346941 0.712000012 211 205 189
-0.101096638 0.052420463 0.713000059 211 206 190
-0.099848524 0.052420463 0.713000059 211 205 190
-0.098600417 0.052420463 0.713000059 211 205 190
-0.097352304 0.052420463 0.713000059 210 203 191
-0.096104190 0.052420463 0.713000059 210 203 191
-0.094723068 0.052346941 0.712000012 208 204 191
-0.093476705 0.052346941 0.712000012 207 203 185
-0.092100807 0.052273422 0.711000025 208 201 180
-0.090856194 0.052273422 0.711000025 210 201 180
-0.089611590 0.052273422 0.711000025 208 201 181
-0.088118434 0.052126382 0.709000051 207 202 179
-0.086877331 0.052126382 0.709000051 205 201 178
-0.085636221 0.052126382 0.709000051 203 199 182
-0.084276058 0.052052855 0.708000004 204 201 187
-0.083036706 0.052052855 0.708000004 204 201 187
-0.081912912 0.052126382 0.709000051 206 200 188
-0.080558017 0.052052855 0.708000004 205 202 189
-0.079318650 0.052052855 0.708000004 205 199 186
-0.078079298 0.052052855 0.708000004 206 199 184
-0.076839931 0.052052855 0.708000004 207 198 185
-0.075600602 0.052052855 0.708000004 205 203 186
-0.074361242 0.052052855 0.708000004 204 198 186
-0.072915323 0.051905815 0.706000030 204 196 186
-0.071679473 0.051905815 0.706000030 205 197 186
-0.070443608 0.051905815 0.706000030 203 199 187
-0.069109753 0.051832296 0.705000043 201 199 186
-0.067875646 0.051832296 0.705000043 201 200 185
-0.066641539 0.051832296 0.705000043 201 200 185
-0.065221876 0.051685251 0.703000009 202 204 185
-0.063991264 0.051685251 0.703000009 202 206 185
-0.062760681 0.051685251 0.703000009 203 204 185
-0.061530080 0.051685251 0.703000009 203 205 186
-0.060213696 0.051611729 0.702000022 204 202 185
-0.058984838 0.051611729 0.702000022 206 201 183
-0.057755984 0.051611729 0.702000022 208 202 183
-0.056527153 0.051611729 0.702000022 208 203 184
-0.055298299 0.051611729 0.702000022 208 203 186
-0.053915400 0.051464692 0.700000048 209 204 188
-0.052690044 0.051464692 0.700000048 210 205 192
-0.051464692 0.051464692 0.700000048 210 205 192
-0.050239358 0.051464692 0.700000048 209 205 196
-0.049014002 0.051464692 0.700000048 209 204 196
-0.047720380 0.051391169 0.699000061 209 205 196
-0.046496779 0.051391169 0.699000061 209 205 195
-0.045273174 0.051391169 0.699000061 210 205 194
-0.043986574 0.051317651 0.698000014 211 205 191
-0.042764723 0.051317651 0.698000014 211 207 188
-0.041602384 0.051391169 0.699000061 211 208 190
-0.040321011 0.051317651 0.698000014 214 211 191
-0.039099157 0.051317651 0.698000014 218 213 195
-0.037877329 0.051317651 0.698000014 219 213 199
-0.036655474 0.051317651 0.698000014 221 217 201
-0.035433620 0.051317651 0.698000014 221 217 201
-0.034211766 0.051317651 0.698000014 221 223 203
-0.032895386 0.051170606 0.696000040 222 224 209
-0.031677056 0.051170606 0.696000040 223 228 215
-0.030458704 0.051170606 0.696000040 225 226 220
-0.029240351 0.051170606 0.696000040 230 228 225
-0.028021999 0.051170606 0.696000040 235 233 230
-0.026803646 0.051170606 0.696000040 236 239 236
-0.025585316 0.051170606 0.696000040 238 238 236
-0.024366964 0.051170606 0.696000040 238 240 237
-0.023148609 0.051170606 0.696000040 239 240 238
-0.021930259 0.051170606 0.696000040 241 241 239
-0.020711904 0.051170606 0.696000040 243 241 238
-0.019493576 0.051170606 0.696000040 243 241 238
-0.018275222 0.051170606 0.696000040 242 243 238
-0.017056869 0.051170606 0.696000040 242 242 239
-0.015838517 0.051170606 0.696000040 243 243 241
-0.014620163 0.051170606 0.696000040 244 244 241
-0.013401834 0.051170606 0.696000040 243 245 242
-0.012183482 0.051170606 0.696000040 243 244 243
-0.010965129 0.051170606 0.696000040 242 245 243
-0.009746776 0.051170606 0.696000040 242 244 244
-0.008528423 0.051170606 0.696000040 243 245 244
-0.007310093 0.051170606 0.696000040 244 245 244
-0.006091741 0.051170606 0.696000040 244 246 244
-0.004873388 0.051170606 0.696000040 244 246 244
-0.003649784 0.051097088 0.695000052 244 245 244
-0.002433181 0.051097088 0.695000052 243 245 244
-0.001218353 0.051170606 0.696000040 243 245 243
0.000000000 0.051170606 0.696000040 244 245 242
0.001218376 0.051170606 0.696000040 245 244 242
0.002443708 0.051317651 0.698000014 243 245 242
0.003665538 0.051317651 0.698000014 242 244 243
0.004887415 0.051317651 0.698000014 242 245 245
0.006109246 0.051317651 0.698000014 243 243 244
0.007341626 0.051391169 0.699000061 243 242 244
0.008565207 0.051391169 0.699000061 243 244 243
0.009788788 0.051391169 0.699000061 242 246 242
0.011012415 0.051391169 0.699000061 242 246 242
0.012235996 0.051391169 0.699000061 241 244 240
0.013478879 0.051464692 0.700000048 241 243 239
0.014704210 0.051464692 0.700000048 241 244 240
0.015929542 0.051464692 0.700000048 242 245 241
0.017154921 0.051464692 0.700000048 244 243 241
0.018432766 0.051611729 0.702000022 242 243 240
0.019661644 0.051611729 0.702000022 241 239 238
0.020920236 0.051685251 0.703000009 238 237 237
0.022150818 0.051685251 0.703000009 235 236 234
0.023447968 0.051832296 0.705000043 233 234 232
0.024717061 0.051905815 0.706000030 231 230 229
0.026026463 0.052052855 0.708000004 228 228 227
0.027265798 0.052052855 0.708000004 228 228 227
0.028545398 0.052126382 0.709000051 225 225 223
0.029870553 0.052273422 0.711000025 221 224 220
0.031115141 0.052273422 0.711000025 217 215 215
0.032405287 0.052346941 0.712000012 212 210 210
0.033651624 0.052346941 0.712000012 208 204 206
0.034946978 0.052420463 0.713000059 205 203 201
0.036296636 0.052567504 0.715000033 203 200 197
0.037705775 0.052788071 0.718000054 200 197 194
0.039016925 0.052861586 0.719000041 198 194 191
0.040387549 0.053008631 0.721000016 195 193 188
0.041707411 0.053082157 0.722000062 193 191 189
0.043090329 0.053229194 0.724000037 193 191 189
0.044418942 0.053302713 0.725000024 192 190 191
0.045814119 0.053449757 0.727000058 192 187 190
0.047216251 0.053596798 0.729000032 188 183 189
0.048558861 0.053670317 0.730000019 188 183 189
0.050246377 0.054111447 0.736000061 185 185 188
0.051744785 0.054332010 0.739000022 184 188 187
0.053325515 0.054626089 0.743000031 184 185 186
0.054699637 0.054699611 0.744000018 180 183 185
0.056152534 0.054846659 0.746000051 177 182 189
0.057689503 0.055067215 0.749000013 174 183 193
0.059000604 0.055067215 0.749000013 172 181 193
0.060553331 0.055287786 0.752000034 170 179 194
0.062034234 0.055434823 0.754000008 170 179 194
0.063354090 0.055434823 0.754000008 169 176 206
-0.164547026 0.053971410 0.752000034 241 242 227
-0.163013563 0.053899635 0.751000047 240 243 228
-0.161268294 0.053756092 0.749000013 241 242 230
-0.159957185 0.053756092 0.749000013 243 243 230
-0.158010662 0.053540785 0.746000051 242 239 230
-0.156284645 0.053397242 0.744000018 241 238 232
-0.154982269 0.053397242 0.744000018 240 237 234
-0.153473333 0.053325471 0.743000031 239 236 227
-0.151763096 0.053181928 0.741000056 239 236 227
-0.150465995 0.053181928 0.741000056 238 238 221
-0.148766249 0.053038392 0.739000022 236 237 223
-0.147273079 0.052966617 0.738000035 235 235 225
-0.145585597 0.052823078 0.736000061 234 233 225
-0.144297212 0.052823078 0.736000061 233 230 225
-0.142814547 0.052751310 0.735000014 233 229 222
-0.141142830 0.052607767 0.733000040 232 227 220
-0.139668897 0.052536000 0.732000053 231 224 213
-0.138387531 0.052536000 0.732000053 228 225 206
-0.136544243 0.052320685 0.729000032 226 224 207
-0.135268152 0.052320685 0.729000032 225 224 206
-0.133624434 0.052177146 0.727000058 225 224 206
-0.131987706 0.052033599 0.725000024 223 219 205
-0.130718589 0.052033599 0.725000024 222 216 201
-0.129449472 0.052033599 0.725000024 222 217 197
-0.128003582 0.051961835 0.724000037 222 215 202
-0.126736224 0.051961835 0.724000037 220 215 207
-0.125122249 0.051818296 0.722000062 218 214 209
-0.123686828 0.051746517 0.721000016 217 214 212
-0.122424707 0.051746517 0.721000016 216 215 211
-0.120826520 0.051602982 0.719000041 217 215 211
-0.119567916 0.051602982 0.719000041 219 217 203
-0.118309297 0.051602982 0.719000041 218 216 195
-0.116887897 0.051531211 0.718000054 217 217 193
-0.115631029 0.051531211 0.718000054 217 217 193
-0.114055589 0.051387668 0.716000021 215 211 192
-0.112802230 0.051387668 0.716000021 213 205 195
-0.111393072 0.051315896 0.715000033 214 209 198
-0.109833367 0.051172357 0.713000059 215 211 197
-0.108585253 0.051172357 0.713000059 213 210 196
-0.107337169 0.051172357 0.713000059 212 207 192
-0.106089056 0.051172357 0.713000059 212 205 188
-0.104840949 0.051172357 0.713000059 212 209 189
-0.103592835 0.051172357 0.713000059 211 206 190
-0.102201179 0.051100582 0.712000012 209 205 192
-0.101096638 0.051172357 0.713000059 209 204 194
-0.099848524 0.051172357 0.713000059 209 206 194
-0.098600417 0.051172357 0.713000059 209 206 194
-0.097352304 0.051172357 0.713000059 209 202 194
-0.096104190 0.051172357 0.713000059 209 203 193
-0.094856106 0.051172357 0.713000059 208 203 193
-0.093476705 0.051100582 0.712000012 208 203 187
-0.092230350 0.051100582 0.712000012 209 201 181
-0.090856194 0.051028818 0.711000025 210 200 180
-0.089611590 0.051028818 0.711000025 208 202 180
-0.088118434 0.050885279 0.709000051 207 204 178
-0.086877331 0.050885279 0.709000051 207 202 177
-0.085636221 0.050885279 0.709000051 208 202 183
-0.084395111 0.050885279 0.709000051 208 203 190
-0.083036706 0.050813504 0.708000004 208 203 190
-0.081912912 0.050885279 0.709000051 208 204 192
-0.080671802 0.050885279 0.709000051 207 203 194
-0.079318650 0.050813504 0.708000004 206 202 189
-0.078189589 0.050885279 0.709000051 206 200 185
-0.076839931 0.050813504 0.708000004 207 199 186
-0.075600602 0.050813504 0.708000004 207 201 187
-0.074361242 0.050813504 0.708000004 206 200 187
-0.073121883 0.050813504 0.708000004 206 198 188
-0.071679473 0.050669964 0.706000030 206 199 187
-0.070443608 0.050669964 0.706000030 205 201 186
-0.069109753 0.050598197 0.705000043 204 202 185
-0.067875646 0.050598197 0.705000043 204 204 185
-0.066641539 0.050598197 0.705000043 204 204 185
-0.065221876 0.050454654 0.703000009 205 209 186
-0.063991264 0.050454654 0.703000009 205 207 188
-0.062760681 0.050454654 0.703000009 205 205 186
-0.061530080 0.050454654 0.703000009 205 203 185
-0.060299471 0.050454654 0.703000009 205 202 182
-0.058984838 0.050382879 0.702000022 206 202 179
-0.057755984 0.050382879 0.702000022 208 202 182
-0.056527153 0.050382879 0.702000022 208 202 185
-0.055298299 0.050382879 0.702000022 208 202 186
-0.053915400 0.050239339 0.700000048 208 204 188
-0.052690044 0.050239339 0.700000048 209 205 191
-0.051464692 0.050239339 0.700000048 209 205 191
-0.050239358 0.050239339 0.700000048 209 204 195
-0.049014002 0.050239339 0.700000048 209 204 194
-0.047720380 0.050167572 0.699000061 210 204 193
-0.046496779 0.050167572 0.699000061 211 204 192
-0.045273174 0.050167572 0.699000061 211 204 191
-0.043986574 0.050095800 0.698000014 212 204 188
-0.042764723 0.050095800 0.698000014 213 207 185
-0.041542865 0.050095800 0.698000014 214 213 186
-0.040321011 0.050095800 0.698000014 216 216 188
-0.039099157 0.050095800 0.698000014 219 221 191
-0.037877329 0.050095800 0.698000014 222 220 195
-0.036655474 0.050095800 0.698000014 225 223 200
-0.035433620 0.050095800 0.698000014 225 223 200
-0.034211766 0.050095800 0.698000014 225 223 206
-0.032895386 0.049952261 0.696000040 226 224 212
-0.031677056 0.049952261 0.696000040 227 226 219
-0.030458704 0.049952261 0.696000040 229 227 223
-0.029240351 0.049952261 0.696000040 232 232 228
-0.028021999 0.049952261 0.696000040 235 237 233
-0.026765132 0.049880490 0.695000052 237 237 238
-0.025548555 0.049880490 0.695000052 238 238 239
-0.024331953 0.049880490 0.695000052 239 240 240
-0.023115350 0.049880490 0.695000052 241 242 241
-0.021898748 0.049880490 0.695000052 241 242 242
-0.020682145 0.049880490 0.695000052 241 242 240
-0.019493576 0.049952261 0.696000040 241 242 240
-0.018275222 0.049952261 0.696000040 242 243 238
-0.017056869 0.049952261 0.696000040 242 243 240
-0.015815759 0.049880490 0.695000052 242 243 242
-0.014599157 0.049880490 0.695000052 243 245 243
-0.013382578 0.049880490 0.695000052 242 244 244
-0.012165977 0.049880490 0.695000052 242 244 243
-0.010949374 0.049880490 0.695000052 242 244 243
-0.009732772 0.049880490 0.695000052 242 244 243
-0.008516170 0.049880490 0.695000052 243 245 244
-0.007299590 0.049880490 0.695000052 244 246 244
-0.006082988 0.049880490 0.695000052 243 246 245
-0.004866386 0.049880490 0.695000052 243 246 245
-0.003639280 0.049736947 0.693000019 243 245 244
-0.002426179 0.049736947 0.693000019 243 244 243
-0.001218353 0.049952261 0.696000040 243 244 243
0.000000000 0.049952261 0.696000040 243 244 244
0.001218376 0.049952261 0.696000040 244 243 243
0.002436706 0.049952261 0.696000040 243 243 243
0.003655035 0.049952261 0.696000040 242 243 243
0.004887415 0.050095800 0.698000014 243 244 244
0.006109246 0.050095800 0.698000014 243 245 245
0.007331123 0.050095800 0.698000014 244 245 246
0.008552954 0.050095800 0.698000014 245 247 244
0.009788788 0.050167572 0.699000061 243 245 243
0.011012415 0.050167572 0.699000061 243 245 243
0.012235996 0.050167572 0.699000061 241 245 241
0.013459624 0.050167572 0.699000061 242 244 239
0.014683205 0.050167572 0.699000061 242 245 240
0.015906787 0.050167572 0.699000061 243 245 242
0.017130414 0.050167572 0.699000061 244 244 242
0.018380251 0.050239339 0.700000048 241 241 242
0.019605629 0.050239339 0.700000048 239 236 240
0.020890478 0.050382879 0.702000022 237 237 238
0.022150818 0.050454654 0.703000009 235 237 236
0.023381449 0.050454654 0.703000009 233 232 234
0.024682052 0.050598197 0.705000043 230 226 231
0.025952943 0.050669964 0.706000030 228 226 228
0.027265798 0.050813504 0.708000004 228 226 228
0.028545398 0.050885279 0.709000051 225 225 222
0.029870553 0.051028818 0.711000025 220 221 217
0.031115141 0.051028818 0.711000025 215 217 210
0.032405287 0.051100582 0.712000012 212 210 203
0.033698887 0.051172357 0.713000059 210 204 201
0.035045002 0.051315896 0.715000033 206 203 200
0.036347404 0.051387668 0.716000021 203 199 197
0.037705775 0.051531211 0.718000054 201 197 194
0.039016925 0.051602982 0.719000041 199 195 190
0.040387549 0.051746517 0.721000016 196 192 186
0.041707411 0.051818296 0.722000062 193 191 191
0.043090329 0.051961835 0.724000037 193 191 191
0.044357672 0.051961835 0.724000037 192 189 196
0.045688082 0.052033599 0.725000024 191 185 194
0.047216251 0.052320685 0.729000032 188 184 192
0.048558861 0.052392453 0.730000019 188 184 192
0.050178103 0.052751310 0.735000014 185 185 188
0.051674765 0.052966617 0.738000035 184 186 185
0.053181976 0.053181928 0.741000056 184 186 183
0.054626115 0.053325471 0.743000031 181 183 181
0.056001991 0.053397242 0.744000018 177 182 185
0.057458438 0.053540785 0.746000051 174 181 190
0.058843061 0.053612553 0.747000039 172 181 192
0.060472809 0.053899635 0.751000047 166 178 195
0.061869692 0.053971410 0.752000034 166 178 195
0.063186049 0.053971410 0.752000034 161 179 210
-0.164547026 0.052655034 0.752000034 244 240 228
-0.163013563 0.052585013 0.751000047 244 241 229
-0.161268294 0.052444968 0.749000013 242 244 231
-0.159530059 0.052304931 0.747000039 241 241 232
-0.158010662 0.052234914 0.746000051 242 238 233
-0.156284645 0.052094869 0.744000018 244 239 235
-0.154773951 0.052024849 0.743000031 243 242 237
-0.153473333 0.052024849 0.743000031 243 241 232
-0.151763096 0.051884811 0.741000056 243 241 232
-0.150465995 0.051884811 0.741000056 240 244 227
-0.148766249 0.051744770 0.739000022 238 239 228
-0.147273079 0.051674750 0.738000035 237 238 228
-0.145585597 0.051534712 0.736000061 236 233 225
-0.144101158 0.051464692 0.735000014 236 229 222
-0.142814547 0.051464692 0.735000014 236 229 216
-0.141142830 0.051324654 0.733000040 233 228 211
-0.139668897 0.051254634 0.732000053 231 226 209
-0.138387531 0.051254634 0.732000053 228 225 208
-0.136731550 0.051114589 0.730000019 226 225 206
-0.135268152 0.051044572 0.729000032 225 222 203
-0.133624434 0.050904535 0.727000058 225 222 203
-0.132351816 0.050904535 0.727000058 225 218 202
-0.131079197 0.050904535 0.727000058 225 218 202
-0.129449472 0.050764490 0.725000024 223 221 202
-0.128180370 0.050764490 0.725000024 222 217 205
-0.126736224 0.050694473 0.724000037 220 215 208
-0.125122249 0.050554436 0.722000062 218 213 208
-0.123858385 0.050554436 0.722000062 216 214 207
-0.122424707 0.050484408 0.721000016 214 213 206
-0.120826520 0.050344370 0.719000041 216 214 205
-0.119567916 0.050344370 0.719000041 218 213 201
-0.118309297 0.050344370 0.719000041 218 214 197
-0.117050678 0.050344370 0.719000041 218 213 196
-0.115631029 0.050274353 0.718000054 218 213 196
-0.114055589 0.050134312 0.716000021 215 210 194
-0.112802230 0.050134312 0.716000021 212 208 194
-0.111393072 0.050064292 0.715000033 213 209 193
-0.109833367 0.049924254 0.713000059 215 210 194
-0.108585253 0.049924254 0.713000059 213 214 196
-0.107337169 0.049924254 0.713000059 212 207 193
-0.106089056 0.049924254 0.713000059 212 204 191
-0.104840949 0.049924254 0.713000059 213 206 192
-0.103592835 0.049924254 0.713000059 210 207 193
-0.102344722 0.049924254 0.713000059 208 204 192
-0.101096638 0.049924254 0.713000059 208 201 192
-0.099848524 0.049924254 0.713000059 208 201 191
-0.098600417 0.049924254 0.713000059 208 201 191
-0.097352304 0.049924254 0.713000059 208 199 190
-0.096104190 0.049924254 0.713000059 208 203 189
-0.094856106 0.049924254 0.713000059 208 204 189
-0.093476705 0.049854230 0.712000012 209 204 186
-0.092230350 0.049854230 0.712000012 210 202 183
-0.090983987 0.049854230 0.712000012 211 203 181
-0.089737624 0.049854230 0.712000012 209 205 180
-0.088367008 0.049784213 0.711000025 207 204 183
-0.086877331 0.049644176 0.709000051 210 203 186
-0.085636221 0.049644176 0.709000051 213 204 188
-0.084395111 0.049644176 0.709000051 211 207 191
-0.083154000 0.049644176 0.709000051 211 207 191
-0.081912912 0.049644176 0.709000051 210 205 190
-0.080671802 0.049644176 0.709000051 208 204 189
-0.079430699 0.049644176 0.709000051 207 202 187
-0.078189589 0.049644176 0.709000051 207 201 185
-0.076839931 0.049574148 0.708000004 208 201 185
-0.075600602 0.049574148 0.708000004 208 203 186
-0.074361242 0.049574148 0.708000004 209 200 186
-0.073121883 0.049574148 0.708000004 208 198 187
-0.071679473 0.049434111 0.706000030 208 201 187
-0.070343837 0.049364094 0.705000043 207 204 187
-0.069109753 0.049364094 0.705000043 207 204 188
-0.067875646 0.049364094 0.705000043 207 205 189
-0.066641539 0.049364094 0.705000043 207 205 189
-0.065221876 0.049224049 0.703000009 208 207 190
-0.063991264 0.049224049 0.703000009 207 208 191
-0.062760681 0.049224049 0.703000009 207 205 190
-0.061530080 0.049224049 0.703000009 206 203 189
-0.060299471 0.049224049 0.703000009 206 202 186
-0.058984838 0.049154028 0.702000022 207 203 183
-0.057755984 0.049154028 0.702000022 208 203 184
-0.056527153 0.049154028 0.702000022 208 204 186
-0.055298299 0.049154028 0.702000022 208 204 186
-0.053915400 0.049013991 0.700000048 208 205 187
-0.052690044 0.049013991 0.700000048 209 204 189
-0.051464692 0.049013991 0.700000048 209 204 189
-0.050239358 0.049013991 0.700000048 209 203 192
-0.049014002 0.049013991 0.700000048 210 203 192
