ply
format ascii 1.0
comment INESC
element vertex 971
property float x
property float y
property float z
property uchar red
property uchar green
property uchar blue
end_header
0.051286142 -0.062083255 0.771000028 132 117 117
0.052772351 -0.062244300 0.773000062 128 115 113
0.054195486 -0.062324829 0.774000049 124 113 112
0.055693943 -0.062485874 0.776000023 126 115 112
0.057199355 -0.062646925 0.778000057 129 119 117
0.058937579 -0.063049532 0.783000052 132 120 122
0.060462296 -0.063210577 0.785000026 135 120 124
0.061993968 -0.063371629 0.787000060 140 122 127
0.063452162 -0.063452147 0.788000047 145 129 132
0.064996079 -0.063613191 0.790000021 153 140 138
0.066378951 -0.063613191 0.790000021 153 140 138
0.067761883 -0.063613191 0.790000021 161 154 145
0.069319807 -0.063774243 0.792000055 170 162 152
0.070884779 -0.063935287 0.794000030 179 172 157
0.072274663 -0.063935287 0.794000030 186 177 163
0.073850088 -0.064096339 0.796000063 194 183 165
0.075243518 -0.064096339 0.796000063 196 192 168
0.076636903 -0.064096339 0.796000063 198 197 173
0.078226388 -0.064257383 0.798000038 202 200 178
0.079623252 -0.064257383 0.798000038 207 200 182
0.081121661 -0.064337894 0.799000025 209 204 187
0.082520336 -0.064337894 0.799000025 212 207 190
0.084129035 -0.064498946 0.801000059 213 211 194
0.085744776 -0.064659990 0.803000033 213 211 194
0.087367475 -0.064821042 0.805000067 215 214 195
0.088997170 -0.064982086 0.807000041 216 215 197
0.090633914 -0.065143131 0.809000015 217 218 197
0.092050046 -0.065143131 0.809000015 217 216 197
0.093697302 -0.065304175 0.811000049 217 217 199
0.095351502 -0.065465219 0.813000023 216 216 202
0.097012706 -0.065626271 0.815000057 216 215 201
0.098560184 -0.065706797 0.816000044 216 215 201
0.100478709 -0.066028886 0.820000052 215 213 201
0.102162719 -0.066189930 0.822000027 214 213 201
0.104105756 -0.066512018 0.826000035 212 211 202
0.105807222 -0.066673070 0.828000069 210 210 200
0.107774809 -0.066995159 0.832000017 210 210 200
0.109493792 -0.067156203 0.834000051 204 206 198
0.111219808 -0.067317247 0.836000025 198 201 192
0.113222368 -0.067639343 0.840000033 196 195 187
0.114965841 -0.067800388 0.842000067 194 193 186
0.116716363 -0.067961432 0.844000041 190 189 185
0.118473843 -0.068122476 0.846000016 187 185 181
0.120380178 -0.068364054 0.849000037 186 179 178
0.122153416 -0.068525098 0.851000011 185 176 178
0.124514811 -0.069008239 0.857000053 184 175 179
0.126603201 -0.069330335 0.861000061 184 177 177
0.128407940 -0.069491372 0.863000035 185 178 175
0.130370289 -0.069732949 0.866000056 187 180 177
0.132190779 -0.069893993 0.868000031 185 178 175
0.133402109 -0.069732949 0.866000056 183 181 180
0.135229662 -0.069893993 0.868000031 183 181 180
-0.057843521 -0.061787438 0.751000047 80 87 112
-0.056528892 -0.061787438 0.751000047 72 77 112
-0.055287782 -0.061869711 0.752000034 65 87 121
-0.053899657 -0.061787438 0.751000047 91 83 130
-0.052655045 -0.061869711 0.752000034 91 83 130
-0.051338665 -0.061869711 0.752000034 117 125 143
-0.050022285 -0.061869711 0.752000034 152 147 157
-0.048705902 -0.061869711 0.752000034 187 167 163
-0.047326528 -0.061787438 0.751000047 190 178 170
-0.046011899 -0.061787438 0.751000047 193 179 169
-0.044578232 -0.061622888 0.749000013 192 179 169
-0.043382637 -0.061787438 0.751000047 191 180 170
-0.041955970 -0.061622888 0.749000013 191 182 172
-0.040753402 -0.061787438 0.751000047 191 178 169
-0.039333738 -0.061622888 0.749000013 191 177 167
-0.038022608 -0.061622888 0.749000013 192 178 168
-0.036711477 -0.061622888 0.749000013 192 178 168
-0.035400346 -0.061622888 0.749000013 193 180 168
-0.034089241 -0.061622888 0.749000013 195 179 167
-0.032778114 -0.061622888 0.749000013 194 183 166
-0.031466983 -0.061622888 0.749000013 193 181 167
-0.030075332 -0.061458342 0.747000039 195 181 168
-0.028767705 -0.061458342 0.747000039 197 181 171
-0.027460100 -0.061458342 0.747000039 196 183 174
-0.026152471 -0.061458342 0.747000039 195 182 174
-0.024844844 -0.061458342 0.747000039 194 182 174
-0.023537215 -0.061458342 0.747000039 194 180 171
-0.022229586 -0.061458342 0.747000039 194 181 168
-0.020893976 -0.061376072 0.746000051 194 178 165
-0.019588098 -0.061376072 0.746000051 194 178 165
-0.018282220 -0.061376072 0.746000051 192 177 162
-0.016976342 -0.061376072 0.746000051 190 178 164
-0.015670463 -0.061376072 0.746000051 190 179 166
-0.014364609 -0.061376072 0.746000051 190 178 169
-0.013058731 -0.061376072 0.746000051 191 178 173
-0.011752853 -0.061376072 0.746000051 192 179 174
-0.010446975 -0.061376072 0.746000051 193 179 176
-0.009141097 -0.061376072 0.746000051 194 178 175
-0.007835244 -0.061376072 0.746000051 195 181 175
-0.006529366 -0.061376072 0.746000051 197 181 175
-0.005223488 -0.061376072 0.746000051 197 181 175
-0.003917609 -0.061376072 0.746000051 197 181 175
-0.002615232 -0.061458342 0.747000039 198 179 176
-0.001307629 -0.061458342 0.747000039 197 175 178
0.000000000 -0.061622888 0.749000013 197 175 176
0.001311154 -0.061622888 0.749000013 194 171 175
0.002629261 -0.061787438 0.751000047 192 171 171
0.003943867 -0.061787438 0.751000047 191 171 167
0.005265525 -0.061869711 0.752000034 191 171 169
0.006581881 -0.061869711 0.752000034 190 171 170
0.007898287 -0.061869711 0.752000034 189 169 169
0.009214643 -0.061869711 0.752000034 187 161 168
0.010530999 -0.061869711 0.752000034 185 159 163
0.011847406 -0.061869711 0.752000034 180 153 158
0.013163761 -0.061869711 0.752000034 180 153 158
0.014480167 -0.061869711 0.752000034 175 155 157
0.015796524 -0.061869711 0.752000034 172 152 157
0.017112881 -0.061869711 0.752000034 169 152 154
0.018429287 -0.061869711 0.752000034 168 152 152
0.019798158 -0.062034257 0.754000008 167 150 147
0.021118063 -0.062034257 0.754000008 168 146 143
0.022437923 -0.062034257 0.754000008 169 148 142
0.023757778 -0.062034257 0.754000008 168 155 142
0.025077686 -0.062034257 0.754000008 167 150 145
0.026327522 -0.061869711 0.752000034 165 154 149
0.027717449 -0.062034257 0.754000008 164 146 145
0.029037306 -0.062034257 0.754000008 164 146 142
0.030357163 -0.062034257 0.754000008 164 146 142
0.031677071 -0.062034257 0.754000008 165 138 142
0.033084452 -0.062198807 0.756000042 153 134 142
0.034407858 -0.062198807 0.756000042 142 131 139
0.035778482 -0.062281083 0.757000029 140 122 136
0.037299648 -0.062610179 0.761000037 138 123 131
0.038784102 -0.062856995 0.764000058 139 118 126
0.040226497 -0.063021541 0.766000032 140 121 123
0.041621670 -0.063103817 0.767000020 139 121 120
0.042964287 -0.063103817 0.767000020 138 123 122
0.044422429 -0.063268356 0.769000053 136 126 124
0.045768596 -0.063268356 0.769000053 135 123 125
0.047114711 -0.063268356 0.769000053 133 126 126
0.048586912 -0.063432910 0.771000028 135 123 125
0.050130837 -0.063679732 0.774000049 133 126 126
0.051485702 -0.063679732 0.774000049 132 124 121
0.052977160 -0.063844278 0.776000023 131 122 115
0.054475568 -0.064008832 0.778000057 131 121 115
0.056052797 -0.064255640 0.781000018 133 123 115
0.057714000 -0.064584740 0.785000026 135 125 119
0.059088118 -0.064584740 0.785000026 136 128 123
0.060616340 -0.064749286 0.787000060 138 128 127
0.061993968 -0.064749286 0.787000060 143 132 132
0.063452162 -0.064831562 0.788000047 148 136 139
0.064996079 -0.064996108 0.790000021 159 145 146
0.066378951 -0.064996108 0.790000021 159 145 146
0.067761883 -0.064996108 0.790000021 170 161 154
0.069319807 -0.065160654 0.792000055 175 173 162
0.070884779 -0.065325201 0.794000030 180 177 163
0.072274663 -0.065325201 0.794000030 187 184 165
0.073850088 -0.065489754 0.796000063 194 187 165
0.075243518 -0.065489754 0.796000063 197 194 165
0.076636903 -0.065489754 0.796000063 201 197 173
0.078226388 -0.065654293 0.798000038 204 200 181
0.079623252 -0.065654293 0.798000038 207 201 184
0.081121661 -0.065736562 0.799000025 209 204 187
0.082520336 -0.065736562 0.799000025 211 208 190
0.084129035 -0.065901116 0.801000059 213 212 193
0.085744776 -0.066065654 0.803000033 213 212 193
0.087150410 -0.066065654 0.803000033 216 213 193
0.088776603 -0.066230208 0.805000067 216 216 194
0.090409853 -0.066394761 0.807000041 217 216 194
0.092050046 -0.066559300 0.809000015 217 215 195
0.093697302 -0.066723853 0.811000049 217 215 198
0.095116936 -0.066723853 0.811000049 217 216 200
0.096774638 -0.066888399 0.813000023 217 214 199
0.098560184 -0.067135215 0.816000044 217 214 199
0.100478709 -0.067464314 0.820000052 216 212 199
0.102162719 -0.067628860 0.822000027 215 212 197
0.104105756 -0.067957953 0.826000035 212 212 196
0.106062800 -0.068287052 0.830000043 210 209 194
0.107774809 -0.068451598 0.832000017 210 209 194
0.109756358 -0.068780690 0.836000025 203 207 191
0.111485898 -0.068945237 0.838000059 196 199 188
0.113491938 -0.069274336 0.842000067 194 194 185
0.115238912 -0.069438875 0.844000041 193 190 183
0.116992950 -0.069603421 0.846000016 189 186 181
0.118473843 -0.069603421 0.846000016 186 180 178
0.120380178 -0.069850251 0.849000037 184 176 175
0.122440495 -0.070179343 0.853000045 182 173 174
0.124224231 -0.070343889 0.855000019 182 171 173
0.126603201 -0.070837528 0.861000061 183 174 172
0.128407940 -0.071002074 0.863000035 184 175 172
0.130370289 -0.071248904 0.866000056 186 179 175
0.131886199 -0.071248904 0.866000056 186 179 175
0.133402109 -0.071248904 0.866000056 181 183 178
0.135229662 -0.071413442 0.868000031 181 183 178
-0.057689473 -0.062933989 0.749000013 87 79 105
-0.056378342 -0.062933989 0.749000013 77 76 104
-0.055067211 -0.062933989 0.749000013 68 78 103
-0.053756110 -0.062933989 0.749000013 94 91 102
-0.052444980 -0.062933989 0.749000013 94 91 102
-0.051133852 -0.062933989 0.749000013 120 115 125
-0.049822722 -0.062933989 0.749000013 150 142 148
-0.048511591 -0.062933989 0.749000013 181 165 158
-0.047200490 -0.062933989 0.749000013 186 173 169
-0.045766827 -0.062765948 0.747000039 190 179 167
-0.044459198 -0.062765948 0.747000039 191 179 166
-0.043151569 -0.062765948 0.747000039 193 179 169
-0.041843943 -0.062765948 0.747000039 192 179 173
-0.040644862 -0.062933989 0.749000013 192 177 169
-0.039228708 -0.062765948 0.747000039 192 177 166
-0.037921079 -0.062765948 0.747000039 192 178 166
-0.036613449 -0.062765948 0.747000039 192 178 166
-0.035305820 -0.062765948 0.747000039 193 178 166
-0.033998217 -0.062765948 0.747000039 194 175 166
-0.032690588 -0.062765948 0.747000039 194 177 166
-0.031382959 -0.062765948 0.747000039 194 180 167
-0.030035071 -0.062681928 0.746000051 195 180 168
-0.028767705 -0.062765948 0.747000039 197 181 171
-0.027460100 -0.062765948 0.747000039 196 182 174
-0.026152471 -0.062765948 0.747000039 196 184 174
-0.024811586 -0.062681928 0.746000051 195 182 174
-0.023505706 -0.062681928 0.746000051 195 182 171
-0.022199828 -0.062681928 0.746000051 195 181 169
-0.020893976 -0.062681928 0.746000051 195 179 166
-0.019588098 -0.062681928 0.746000051 195 179 166
-0.018282220 -0.062681928 0.746000051 193 178 164
-0.016976342 -0.062681928 0.746000051 192 177 162
-0.015670463 -0.062681928 0.746000051 191 177 161
-0.014364609 -0.062681928 0.746000051 191 176 166
-0.013058731 -0.062681928 0.746000051 192 178 171
-0.011721345 -0.062513873 0.744000018 193 180 173
-0.010446975 -0.062681928 0.746000051 193 179 175
-0.009141097 -0.062681928 0.746000051 194 177 176
-0.007835244 -0.062681928 0.746000051 195 178 178
-0.006529366 -0.062681928 0.746000051 196 179 176
-0.005223488 -0.062681928 0.746000051 196 180 175
-0.003917609 -0.062681928 0.746000051 196 180 175
-0.002611731 -0.062681928 0.746000051 196 179 175
-0.001305878 -0.062681928 0.746000051 196 177 175
0.000000000 -0.062765948 0.747000039 196 177 174
0.001307653 -0.062765948 0.747000039 194 175 174
0.002622259 -0.062933989 0.749000013 193 175 169
0.003943867 -0.063102044 0.751000047 192 174 165
0.005265525 -0.063186072 0.752000034 191 172 167
0.006581881 -0.063186072 0.752000034 190 174 169
0.007898287 -0.063186072 0.752000034 190 177 166
0.009214643 -0.063186072 0.752000034 187 168 163
0.010530999 -0.063186072 0.752000034 183 163 159
0.011847406 -0.063186072 0.752000034 176 158 155
0.013163761 -0.063186072 0.752000034 176 158 155
0.014480167 -0.063186072 0.752000034 168 154 150
0.015796524 -0.063186072 0.752000034 164 148 146
0.017158393 -0.063354120 0.754000008 160 145 145
0.018478299 -0.063354120 0.754000008 156 141 144
0.019798158 -0.063354120 0.754000008 152 144 136
0.021118063 -0.063354120 0.754000008 150 134 129
0.022437923 -0.063354120 0.754000008 148 139 129
0.023757778 -0.063354120 0.754000008 146 134 130
0.025077686 -0.063354120 0.754000008 145 136 140
0.026397541 -0.063354120 0.754000008 144 131 150
0.027717449 -0.063354120 0.754000008 144 131 145
0.029037306 -0.063354120 0.754000008 145 126 140
0.030357163 -0.063354120 0.754000008 145 126 140
0.031677071 -0.063354120 0.754000008 147 120 134
0.033084452 -0.063522160 0.756000042 143 124 128
0.034407858 -0.063522160 0.756000042 139 122 128
0.035731219 -0.063522160 0.756000042 140 125 128
0.037691757 -0.064614475 0.769000053 140 127 125
0.039037921 -0.064614475 0.769000053 142 128 123
0.040384039 -0.064614475 0.769000053 144 134 121
0.041838732 -0.064782523 0.771000028 144 134 121
0.043188348 -0.064782523 0.771000028 145 131 120
0.044537965 -0.064782523 0.771000028 146 134 126
0.045887627 -0.064782523 0.771000028 146 129 132
0.047359783 -0.064950570 0.773000062 147 127 132
0.048775967 -0.065034598 0.774000049 147 127 132
0.050260369 -0.065202646 0.776000023 145 132 132
0.051751778 -0.065370694 0.778000057 142 134 125
0.053250235 -0.065538742 0.780000031 141 131 118
0.054685622 -0.065622762 0.781000018 139 128 118
0.056339879 -0.065958858 0.785000026 141 130 119
0.057714000 -0.065958858 0.785000026 143 131 121
0.059238669 -0.066126905 0.787000060 144 134 124
0.060616340 -0.066126905 0.787000060 146 135 131
0.062072732 -0.066210933 0.788000047 151 139 138
0.063452162 -0.066210933 0.788000047 155 140 146
0.064996079 -0.066378981 0.790000021 165 154 154
0.066547006 -0.066547029 0.792000055 165 154 154
0.067761883 -0.066378981 0.790000021 174 172 163
0.069319807 -0.066547029 0.792000055 179 175 172
0.070884779 -0.066715077 0.794000030 185 180 169
0.072274663 -0.066715077 0.794000030 191 184 167
0.073664531 -0.066715077 0.794000030 197 190 165
0.075243518 -0.066883124 0.796000063 201 193 163
0.076636903 -0.066883124 0.796000063 205 197 173
0.078030325 -0.066883124 0.796000063 207 201 184
0.079623252 -0.067051172 0.798000038 208 203 186
0.081020139 -0.067051172 0.798000038 210 206 188
0.082520336 -0.067135192 0.799000025 212 211 190
0.083918974 -0.067135192 0.799000025 214 212 192
0.085531220 -0.067303248 0.801000059 214 212 192
0.087150410 -0.067471288 0.803000033 216 213 191
0.088776603 -0.067639343 0.805000067 217 214 191
0.090409853 -0.067807391 0.807000041 218 216 192
0.092050046 -0.067975432 0.809000015 218 215 194
0.093697302 -0.068143487 0.811000049 218 215 196
0.095351502 -0.068311535 0.813000023 217 214 199
0.097012706 -0.068479583 0.815000057 217 213 198
0.098560184 -0.068563603 0.816000044 217 213 198
0.100478709 -0.068899706 0.820000052 217 212 197
0.102162719 -0.069067746 0.822000027 217 212 194
0.104105756 -0.069403850 0.826000035 214 211 191
0.106062800 -0.069739945 0.830000043 211 208 188
0.108033895 -0.070076041 0.834000051 211 208 188
0.109756358 -0.070244089 0.836000025 204 204 185
0.111485898 -0.070412137 0.838000059 198 197 184
0.113222368 -0.070580184 0.840000033 193 193 183
0.114965841 -0.070748232 0.842000067 188 190 180
0.116992950 -0.071084321 0.846000016 185 182 178
0.118473843 -0.071084321 0.846000016 182 174 175
0.120380178 -0.071336403 0.849000037 180 171 173
0.122440495 -0.071672492 0.853000045 179 169 170
0.124514811 -0.072008587 0.857000053 180 170 167
0.126603201 -0.072344691 0.861000061 181 175 168
0.128407940 -0.072512731 0.863000035 183 175 170
0.130370289 -0.072764814 0.866000056 186 181 173
0.131886199 -0.072764814 0.866000056 186 181 173
0.133402109 -0.072764814 0.866000056 181 179 177
0.135229662 -0.072932854 0.868000031 181 179 177
-0.057458412 -0.063987821 0.746000051 94 91 108
-0.056227803 -0.064073585 0.747000039 83 72 97
-0.054846659 -0.063987821 0.746000051 72 80 100
-0.053540803 -0.063987821 0.746000051 97 90 104
-0.052234925 -0.063987821 0.746000051 97 90 104
-0.050929047 -0.063987821 0.746000051 123 119 123
-0.049689688 -0.064073585 0.747000039 149 142 143
-0.048382059 -0.064073585 0.747000039 176 159 156
-0.047074452 -0.064073585 0.747000039 182 173 169
-0.045766827 -0.064073585 0.747000039 188 176 167
-0.044459198 -0.064073585 0.747000039 191 179 166
-0.043151569 -0.064073585 0.747000039 195 179 167
-0.041843943 -0.064073585 0.747000039 194 181 169
-0.040536337 -0.064073585 0.747000039 194 178 166
-0.039228708 -0.064073585 0.747000039 193 176 163
-0.037921079 -0.064073585 0.747000039 193 177 164
-0.036613449 -0.064073585 0.747000039 193 177 164
-0.035305820 -0.064073585 0.747000039 193 179 166
-0.033998217 -0.064073585 0.747000039 193 176 165
-0.032646827 -0.063987821 0.746000051 194 173 165
-0.031340949 -0.063987821 0.746000051 196 178 166
-0.030035071 -0.063987821 0.746000051 196 181 167
-0.028729195 -0.063987821 0.746000051 197 181 169
-0.027423341 -0.063987821 0.746000051 197 183 171
-0.026117463 -0.063987821 0.746000051 197 181 171
-0.024745064 -0.063816264 0.744000018 197 180 171
-0.023442689 -0.063816264 0.744000018 197 180 170
-0.022140311 -0.063816264 0.744000018 196 182 169
-0.020837959 -0.063816264 0.744000018 196 179 167
-0.019535581 -0.063816264 0.744000018 196 179 167
-0.018233204 -0.063816264 0.744000018 195 179 165
-0.016930828 -0.063816264 0.744000018 194 179 164
-0.015628450 -0.063816264 0.744000018 193 179 163
-0.014326097 -0.063816264 0.744000018 193 178 166
-0.013023721 -0.063816264 0.744000018 193 178 169
-0.011721345 -0.063816264 0.744000018 194 179 170
-0.010418966 -0.063816264 0.744000018 194 180 172
-0.009116590 -0.063816264 0.744000018 194 178 172
-0.007814238 -0.063816264 0.744000018 195 178 173
-0.006511861 -0.063816264 0.744000018 196 180 174
-0.005209483 -0.063816264 0.744000018 195 183 175
-0.003917609 -0.063987821 0.746000051 195 183 175
-0.002611731 -0.063987821 0.746000051 195 181 176
-0.001305878 -0.063987821 0.746000051 195 180 177
0.000000000 -0.064073585 0.747000039 196 179 176
0.001307653 -0.064073585 0.747000039 195 178 175
0.002622259 -0.064245135 0.749000013 194 178 171
0.003943867 -0.064416684 0.751000047 192 178 167
0.005258522 -0.064416684 0.751000047 191 176 167
0.006573128 -0.064416684 0.751000047 191 176 167
0.007898287 -0.064502463 0.752000034 192 175 166
0.009214643 -0.064502463 0.752000034 187 172 165
0.010530999 -0.064502463 0.752000034 182 170 162
0.011847406 -0.064502463 0.752000034 172 164 159
0.013163761 -0.064502463 0.752000034 172 164 159
0.014518678 -0.064674012 0.754000008 162 153 150
0.015838536 -0.064674012 0.754000008 157 144 142
0.017158393 -0.064674012 0.754000008 152 134 133
0.018478299 -0.064674012 0.754000008 144 125 124
0.019850671 -0.064845562 0.756000042 137 116 121
0.021118063 -0.064674012 0.754000008 132 110 119
0.022497438 -0.064845562 0.756000042 127 111 122
0.023820795 -0.064845562 0.756000042 125 107 125
0.025144203 -0.064845562 0.756000042 124 111 129
0.026397541 -0.064674012 0.754000008 124 103 133
0.027717449 -0.064674012 0.754000008 124 112 133
0.029037306 -0.064674012 0.754000008 126 107 133
0.030357163 -0.064674012 0.754000008 126 107 133
0.031761095 -0.064845562 0.756000042 129 114 132
0.033084452 -0.064845562 0.756000042 133 120 131
0.034407858 -0.064845562 0.756000042 137 124 130
0.036440171 -0.066132173 0.771000028 137 124 130
0.037789784 -0.066132173 0.771000028 140 129 129
0.039139450 -0.066132173 0.771000028 143 131 125
0.040594097 -0.066303723 0.773000062 146 135 122
0.041947268 -0.066303723 0.773000062 149 138 123
0.043356400 -0.066389509 0.774000049 151 137 125
0.044711266 -0.066389509 0.774000049 154 138 131
0.046185218 -0.066561051 0.776000023 157 129 138
0.047666125 -0.066732608 0.778000057 160 139 138
0.049028043 -0.066732608 0.778000057 160 139 138
0.050519444 -0.066904150 0.780000031 156 144 138
0.051884815 -0.066904150 0.780000031 153 145 132
0.053318501 -0.066989921 0.781000018 150 143 126
0.054825664 -0.067161471 0.783000052 148 142 125
0.056339879 -0.067333020 0.785000026 149 141 125
0.057861045 -0.067504570 0.787000060 151 143 129
0.059313938 -0.067590348 0.788000047 153 145 133
0.060693361 -0.067590348 0.788000047 155 146 137
0.062230274 -0.067761891 0.790000021 159 150 142
0.063613199 -0.067761891 0.790000021 163 153 146
0.065160625 -0.067933448 0.792000055 171 160 151
0.066547006 -0.067933448 0.792000055 171 160 151
0.067933433 -0.067933448 0.792000055 179 169 156
0.069319807 -0.067933448 0.792000055 184 175 162
0.070884779 -0.068104990 0.794000030 190 179 162
0.072274663 -0.068104990 0.794000030 195 182 163
0.073664531 -0.068104990 0.794000030 200 188 166
0.075243518 -0.068276547 0.796000063 205 192 170
0.076636903 -0.068276547 0.796000063 210 199 179
0.078030325 -0.068276547 0.796000063 210 205 188
0.079623252 -0.068448089 0.798000038 210 205 190
0.081020139 -0.068448089 0.798000038 211 209 193
0.082520336 -0.068533860 0.799000025 213 211 193
0.083918974 -0.068533860 0.799000025 215 213 193
0.085531220 -0.068705410 0.801000059 215 213 193
0.087150410 -0.068876959 0.803000033 217 213 192
0.088776603 -0.069048509 0.805000067 218 214 191
0.090409853 -0.069220059 0.807000041 219 215 192
0.092050046 -0.069391608 0.809000015 219 215 193
0.093697302 -0.069563158 0.811000049 220 213 194
0.095116936 -0.069563158 0.811000049 218 213 196
0.097012706 -0.069906257 0.815000057 217 212 196
0.098560184 -0.069992036 0.816000044 217 212 196
0.100233629 -0.070163578 0.818000019 218 212 196
0.101914153 -0.070335135 0.820000052 219 212 193
0.103853688 -0.070678234 0.824000061 215 213 191
0.105807222 -0.071021333 0.828000069 212 208 188
0.108033895 -0.071535975 0.834000051 212 208 188
0.109756358 -0.071707524 0.836000025 206 204 186
0.111485898 -0.071879081 0.838000059 201 198 183
0.113491938 -0.072222173 0.842000067 192 194 181
0.115238912 -0.072393715 0.844000041 184 184 178
0.116992950 -0.072565265 0.846000016 181 178 176
0.118893974 -0.072822593 0.849000037 178 171 173
0.120663755 -0.072994143 0.851000011 177 167 171
0.122440495 -0.073165692 0.853000045 176 166 168
0.124514811 -0.073508784 0.857000053 178 166 166
0.126603201 -0.073851883 0.861000061 180 170 166
0.128407940 -0.074023440 0.863000035 183 172 167
0.130370289 -0.074280761 0.866000056 186 176 171
0.132190779 -0.074452311 0.868000031 183 172 167
0.133710191 -0.074452311 0.868000031 186 176 171
0.135229662 -0.074452311 0.868000031 182 177 175
-0.057227343 -0.065031089 0.743000031 114 97 111
-0.056001991 -0.065118611 0.744000018 106 92 90
-0.054699611 -0.065118611 0.744000018 99 83 98
-0.053397261 -0.065118611 0.744000018 110 103 106
-0.052094884 -0.065118611 0.744000018 110 103 106
-0.050792508 -0.065118611 0.744000018 121 132 122
-0.049490128 -0.065118611 0.744000018 133 135 138
-0.048317291 -0.065293670 0.746000051 144 156 153
-0.047011442 -0.065293670 0.746000051 164 162 169
-0.045583025 -0.065118611 0.744000018 184 173 168
-0.044280645 -0.065118611 0.744000018 191 175 167
-0.043093804 -0.065293670 0.746000051 198 179 166
-0.041787926 -0.065293670 0.746000051 196 179 165
-0.040482074 -0.065293670 0.746000051 194 179 163
-0.039176196 -0.065293670 0.746000051 194 178 161
-0.037768785 -0.065118611 0.744000018 193 178 163
-0.036564440 -0.065293670 0.746000051 193 178 163
-0.035258561 -0.065293670 0.746000051 193 179 166
-0.033952709 -0.065293670 0.746000051 193 180 165
-0.032559302 -0.065118611 0.744000018 194 177 165
-0.031256925 -0.065118611 0.744000018 196 180 165
-0.029954547 -0.065118611 0.744000018 197 180 166
-0.028729195 -0.065293670 0.746000051 198 181 167
-0.027423341 -0.065293670 0.746000051 197 180 168
-0.026047442 -0.065118611 0.744000018 197 179 168
-0.024745064 -0.065118611 0.744000018 197 179 168
-0.023442689 -0.065118611 0.744000018 197 179 168
-0.022140311 -0.065118611 0.744000018 196 179 169
-0.020837959 -0.065118611 0.744000018 196 179 167
-0.019535581 -0.065118611 0.744000018 196 179 167
-0.018233204 -0.065118611 0.744000018 197 181 166
-0.016930828 -0.065118611 0.744000018 197 181 166
-0.015607444 -0.065031089 0.743000031 196 180 166
-0.014326097 -0.065118611 0.744000018 194 180 166
-0.013023721 -0.065118611 0.744000018 194 178 167
-0.011721345 -0.065118611 0.744000018 193 179 168
-0.010418966 -0.065118611 0.744000018 192 179 170
-0.009116590 -0.065118611 0.744000018 192 178 169
-0.007814238 -0.065118611 0.744000018 192 177 168
-0.006511861 -0.065118611 0.744000018 192 182 172
-0.005209483 -0.065118611 0.744000018 192 182 176
-0.003907106 -0.065118611 0.744000018 193 183 178
-0.002604729 -0.065118611 0.744000018 193 183 178
-0.001305878 -0.065293670 0.746000051 193 182 180
0.000000000 -0.065293670 0.746000051 193 181 178
0.001307653 -0.065381192 0.747000039 195 181 176
0.002622259 -0.065556243 0.749000013 196 182 173
0.003943867 -0.065731287 0.751000047 193 180 170
0.005258522 -0.065731287 0.751000047 189 178 167
0.006573128 -0.065731287 0.751000047 190 178 165
0.007898287 -0.065818816 0.752000034 192 178 166
0.009214643 -0.065818816 0.752000034 189 179 167
0.010530999 -0.065818816 0.752000034 187 181 165
0.011847406 -0.065818816 0.752000034 179 169 163
0.013198771 -0.065993868 0.754000008 179 169 163
0.014518678 -0.065993868 0.754000008 171 152 150
0.015838536 -0.065993868 0.754000008 157 143 138
0.017158393 -0.065993868 0.754000008 144 124 121
0.018478299 -0.065993868 0.754000008 128 108 105
0.019850671 -0.066168919 0.756000042 113 88 107
0.021174081 -0.066168919 0.756000042 112 93 109
0.022527196 -0.066256441 0.757000029 111 91 114
0.023852305 -0.066256441 0.757000029 112 99 120
0.025144203 -0.066168919 0.756000042 112 101 118
0.026467562 -0.066168919 0.756000042 115 103 116
0.027790971 -0.066168919 0.756000042 118 107 121
0.029114326 -0.066168919 0.756000042 122 109 127
0.030437686 -0.066168919 0.756000042 122 109 127
0.031761095 -0.066168919 0.756000042 127 112 130
0.033828415 -0.067656845 0.773000062 127 112 130
0.035181582 -0.067656845 0.773000062 133 121 134
0.036534701 -0.067656845 0.773000062 140 128 132
0.037887815 -0.067656845 0.773000062 144 132 131
0.039240982 -0.067656845 0.773000062 149 136 126
0.040594097 -0.067656845 0.773000062 152 141 121
0.042001531 -0.067744374 0.774000049 155 146 125
0.043468431 -0.067919418 0.776000023 158 149 130
0.044942331 -0.068094470 0.778000057 162 155 137
0.046304256 -0.068094470 0.778000057 161 152 145
0.047788657 -0.068269521 0.780000031 161 159 144
0.049154080 -0.068269521 0.780000031 161 159 144
0.050584212 -0.068357043 0.781000018 160 157 144
0.052084371 -0.068532094 0.783000052 159 162 139
0.053455044 -0.068532094 0.783000052 158 154 135
0.054965705 -0.068707146 0.785000026 157 156 133
0.056483418 -0.068882197 0.787000060 158 152 131
0.057861045 -0.068882197 0.787000060 158 157 136
0.059313938 -0.068969712 0.788000047 159 154 142
0.060693361 -0.068969712 0.788000047 160 156 144
0.062072732 -0.068969712 0.788000047 163 157 147
0.063613199 -0.069144763 0.790000021 166 163 147
0.065160625 -0.069319822 0.792000055 172 165 148
0.066547006 -0.069319822 0.792000055 172 165 148
0.067933433 -0.069319822 0.792000055 178 172 150
0.069319807 -0.069319822 0.792000055 183 175 152
0.070884779 -0.069494866 0.794000030 188 179 156
0.072274663 -0.069494866 0.794000030 193 184 160
0.073850088 -0.069669917 0.796000063 198 190 168
0.075243518 -0.069669917 0.796000063 203 195 177
0.076636903 -0.069669917 0.796000063 208 202 184
0.078030325 -0.069669917 0.796000063 209 203 192
0.079623252 -0.069844969 0.798000038 210 204 195
0.081020139 -0.069844969 0.798000038 212 208 199
0.082417063 -0.069844969 0.798000038 215 212 197
0.083918974 -0.069932491 0.799000025 216 213 195
0.085531220 -0.070107542 0.801000059 216 213 195
0.087150410 -0.070282593 0.803000033 218 215 193
0.088776603 -0.070457645 0.805000067 217 214 192
0.090409853 -0.070632689 0.807000041 217 215 192
0.092050046 -0.070807740 0.809000015 216 213 193
0.093697302 -0.070982799 0.811000049 216 212 193
0.095116936 -0.070982799 0.811000049 216 213 193
0.097012706 -0.071332894 0.815000057 216 213 194
0.098560184 -0.071420416 0.816000044 216 213 194
0.100233629 -0.071595468 0.818000019 216 212 195
0.101914153 -0.071770519 0.820000052 217 213 193
0.103601605 -0.071945570 0.822000027 214 211 192
0.105551645 -0.072295666 0.826000035 211 208 189
0.108033895 -0.072995871 0.834000051 211 208 189
0.110018939 -0.073345974 0.838000059 205 203 187
0.111751966 -0.073521025 0.840000033 199 199 183
0.113491938 -0.073696069 0.842000067 190 187 179
0.115238912 -0.073871113 0.844000041 182 174 176
0.117407821 -0.074308753 0.849000037 179 172 174
0.118893974 -0.074308753 0.849000037 176 167 171
0.120663755 -0.074483790 0.851000011 175 165 169
0.122440495 -0.074658848 0.853000045 174 163 167
0.124514811 -0.075008944 0.857000053 177 164 165
0.126603201 -0.075359046 0.861000061 179 167 165
0.128854319 -0.075796679 0.866000056 181 170 165
0.130671382 -0.075971723 0.868000031 181 170 165
0.132495373 -0.076146767 0.870000064 181 170 165
0.134018272 -0.076146767 0.870000064 184 175 169
0.135852829 -0.076321818 0.872000039 179 175 173
-0.063301578 -0.065885358 0.738000035 193 186 174
-0.062009707 -0.065885358 0.738000035 194 182 169
-0.060800109 -0.065974630 0.739000022 188 177 164
-0.059506506 -0.065974630 0.739000022 183 163 152
-0.058212884 -0.065974630 0.739000022 158 146 141
-0.056919262 -0.065974630 0.739000022 134 122 122
-0.055776171 -0.066153176 0.741000056 130 119 103
-0.054479051 -0.066153176 0.741000056 126 97 101
-0.053181950 -0.066153176 0.741000056 123 110 100
-0.052024864 -0.066331729 0.743000031 123 110 100
-0.050724238 -0.066331729 0.743000031 120 106 109
-0.049423609 -0.066331729 0.743000031 116 111 118
-0.048187751 -0.066421010 0.744000018 113 132 133
-0.046885401 -0.066421010 0.744000018 147 147 149
-0.045583025 -0.066421010 0.744000018 181 163 158
-0.044280645 -0.066421010 0.744000018 191 171 167
-0.042978268 -0.066421010 0.744000018 201 176 168
-0.041675895 -0.066421010 0.744000018 198 179 169
-0.040373541 -0.066421010 0.744000018 195 179 166
-0.039071161 -0.066421010 0.744000018 194 179 164
-0.037768785 -0.066421010 0.744000018 194 179 165
-0.036466409 -0.066421010 0.744000018 194 179 165
-0.035164028 -0.066421010 0.744000018 194 179 166
-0.033861678 -0.066421010 0.744000018 194 178 167
-0.032559302 -0.066421010 0.744000018 195 178 168
-0.031214913 -0.066331729 0.743000031 196 178 167
-0.029954547 -0.066421010 0.744000018 197 180 167
-0.028652173 -0.066421010 0.744000018 199 179 168
-0.027349818 -0.066421010 0.744000018 198 177 169
-0.026012432 -0.066331729 0.743000031 197 178 170
-0.024711804 -0.066331729 0.743000031 197 179 171
-0.023442689 -0.066421010 0.744000018 197 179 171
-0.022110552 -0.066331729 0.743000031 197 179 171
-0.020809948 -0.066331729 0.743000031 197 182 169
-0.019509323 -0.066331729 0.743000031 197 182 169
-0.018208696 -0.066331729 0.743000031 199 188 168
-0.016908070 -0.066331729 0.743000031 201 184 168
-0.015607444 -0.066331729 0.743000031 198 183 168
-0.014326097 -0.066421010 0.744000018 196 180 169
-0.013023721 -0.066421010 0.744000018 194 176 171
-0.011705589 -0.066331729 0.743000031 193 178 171
-0.010418966 -0.066421010 0.744000018 191 179 172
-0.009104336 -0.066331729 0.743000031 190 176 170
-0.007803734 -0.066331729 0.743000031 189 173 169
-0.006511861 -0.066421010 0.744000018 188 177 171
-0.005209483 -0.066421010 0.744000018 190 180 173
-0.003907106 -0.066421010 0.744000018 192 182 176
-0.002604729 -0.066421010 0.744000018 192 182 176
-0.001305878 -0.066599563 0.746000051 191 186 179
0.000000000 -0.066599563 0.746000051 191 182 179
0.001307653 -0.066688828 0.747000039 195 185 179
0.002622259 -0.066867381 0.749000013 199 183 176
0.003943867 -0.067045934 0.751000047 193 182 174
0.005258522 -0.067045934 0.751000047 188 182 173
0.006581881 -0.067135215 0.752000034 190 183 173
0.007898287 -0.067135215 0.752000034 192 183 175
0.009214643 -0.067135215 0.752000034 192 186 177
0.010530999 -0.067135215 0.752000034 192 182 174
0.011878913 -0.067313768 0.754000008 186 179 171
0.013198771 -0.067313768 0.754000008 186 179 171
0.014518678 -0.067313768 0.754000008 180 165 161
0.015838536 -0.067313768 0.754000008 158 154 151
0.017203905 -0.067492314 0.756000042 136 133 136
0.018527314 -0.067492314 0.756000042 113 95 120
0.019929446 -0.067760140 0.759000063 90 96 115
0.021258106 -0.067760140 0.759000063 93 83 109
0.022646230 -0.067938693 0.761000037 96 94 115
0.023978341 -0.067938693 0.761000037 98 99 121
0.025343761 -0.068027966 0.762000024 101 102 122
0.026677622 -0.068027966 0.762000024 107 103 123
0.028085055 -0.068206519 0.764000058 113 108 127
0.029499438 -0.068385072 0.766000032 119 111 130
0.030840300 -0.068385072 0.766000032 119 111 130
0.032307249 -0.068652891 0.769000053 125 117 130
0.033740889 -0.068831444 0.771000028 125 117 130
0.035181582 -0.069009997 0.773000062 134 127 130
0.036534701 -0.069009997 0.773000062 143 130 131
0.037887815 -0.069009997 0.773000062 149 137 132
0.039291751 -0.069099277 0.774000049 155 142 131
0.040646613 -0.069099277 0.774000049 158 149 131
0.042110063 -0.069277823 0.776000023 161 152 134
0.043468431 -0.069277823 0.776000023 165 158 138
0.044942331 -0.069456384 0.778000057 170 160 143
0.046423286 -0.069634929 0.780000031 166 165 149
0.047788657 -0.069634929 0.780000031 163 162 147
0.049217090 -0.069724195 0.781000018 163 162 147
0.050584212 -0.069724195 0.781000018 164 163 146
0.052084371 -0.069902755 0.783000052 166 161 143
0.053591583 -0.070081301 0.785000026 166 157 141
0.054965705 -0.070081301 0.785000026 167 156 141
0.056483418 -0.070259854 0.787000060 166 155 142
0.057934564 -0.070349135 0.788000047 166 156 145
0.059313938 -0.070349135 0.788000047 166 158 148
0.060693361 -0.070349135 0.788000047 160 156 144
0.062230274 -0.070527680 0.790000021 163 157 147
0.063613199 -0.070527680 0.790000021 166 163 147
0.064996079 -0.070527680 0.790000021 172 165 148
0.066547006 -0.070706233 0.792000055 172 165 148
0.067933433 -0.070706233 0.792000055 178 172 150
0.069319807 -0.070706233 0.792000055 183 175 152
0.070884779 -0.070884787 0.794000030 188 179 156
0.072274663 -0.070884787 0.794000030 193 184 160
0.073850088 -0.071063340 0.796000063 198 190 168
0.075243518 -0.071063340 0.796000063 203 195 177
0.076636903 -0.071063340 0.796000063 208 202 184
0.078030325 -0.071063340 0.796000063 209 203 192
0.079623252 -0.071241885 0.798000038 210 204 195
0.081020139 -0.071241885 0.798000038 212 208 199
0.082417063 -0.071241885 0.798000038 215 212 197
0.083918974 -0.071331158 0.799000025 216 213 195
0.085531220 -0.071509711 0.801000059 216 213 195
0.087150410 -0.071688257 0.803000033 218 215 193
0.088556036 -0.071688257 0.803000033 217 214 192
0.090409853 -0.072045363 0.807000041 217 215 192
0.092050046 -0.072223909 0.809000015 216 213 193
0.093466230 -0.072223909 0.809000015 216 212 193
0.095116936 -0.072402470 0.811000049 216 213 193
0.097012706 -0.072759569 0.815000057 216 213 194
0.098560184 -0.072848849 0.816000044 216 213 194
0.100233629 -0.073027395 0.818000019 216 212 195
0.101914153 -0.073205948 0.820000052 217 213 193
0.103853688 -0.073563054 0.824000061 214 211 192
0.106062800 -0.074098706 0.830000043 211 208 189
0.108292960 -0.074634358 0.836000025 211 208 189
0.110018939 -0.074812911 0.838000059 205 203 187
0.111751966 -0.074991465 0.840000033 199 199 183
0.113491938 -0.075170010 0.842000067 190 187 179
0.115238912 -0.075348556 0.844000041 182 174 176
0.116992950 -0.075527109 0.846000016 179 172 174
0.118893974 -0.075794935 0.849000037 176 167 171
0.120663755 -0.075973488 0.851000011 175 165 169
0.122727573 -0.076330587 0.855000019 174 163 167
0.124514811 -0.076509148 0.857000053 177 164 165
0.126897275 -0.077044800 0.863000035 179 167 165
0.129151911 -0.077491179 0.868000031 179 167 165
0.130671382 -0.077491179 0.868000031 181 170 165
0.132799953 -0.077848271 0.872000039 181 170 165
0.134326354 -0.077848271 0.872000039 184 175 169
0.136164412 -0.078026824 0.874000013 179 175 173
-0.063130029 -0.066995159 0.736000061 194 186 175
-0.061841659 -0.066995159 0.736000061 196 184 169
-0.060717832 -0.067177206 0.738000035 191 180 164
-0.059425984 -0.067177206 0.738000035 186 178 157
-0.058134109 -0.067177206 0.738000035 161 154 150
-0.056842234 -0.067177206 0.738000035 137 128 133
-0.055625632 -0.067268230 0.739000022 121 111 116
-0.054332010 -0.067268230 0.739000022 105 79 105
-0.053181950 -0.067450278 0.741000056 99 81 95
-0.051884823 -0.067450278 0.741000056 99 81 95
-0.050587695 -0.067450278 0.741000056 93 72 96
-0.049423609 -0.067632332 0.743000031 111 100 98
-0.048122983 -0.067632332 0.743000031 129 114 113
-0.046885401 -0.067723364 0.744000018 156 143 129
-0.045521751 -0.067632332 0.743000031 183 162 148
-0.044221129 -0.067632332 0.743000031 189 171 167
-0.042978268 -0.067723364 0.744000018 196 176 170
-0.041675895 -0.067723364 0.744000018 196 179 173
-0.040373541 -0.067723364 0.744000018 197 182 170
-0.039071161 -0.067723364 0.744000018 195 181 167
-0.037718020 -0.067632332 0.743000031 194 180 167
-0.036417391 -0.067632332 0.743000031 194 180 167
-0.035116769 -0.067632332 0.743000031 194 179 167
-0.033816166 -0.067632332 0.743000031 195 177 169
-0.032515541 -0.067632332 0.743000031 196 177 171
-0.031214913 -0.067632332 0.743000031 197 177 170
-0.029914286 -0.067632332 0.743000031 197 180 169
-0.028613659 -0.067632332 0.743000031 197 179 169
-0.027313057 -0.067632332 0.743000031 197 179 170
-0.025942411 -0.067450278 0.741000056 198 180 172
-0.024711804 -0.067632332 0.743000031 197 180 175
-0.023411177 -0.067632332 0.743000031 197 181 174
-0.022110552 -0.067632332 0.743000031 197 183 173
-0.020809948 -0.067632332 0.743000031 197 185 171
-0.019509323 -0.067632332 0.743000031 197 185 171
-0.018208696 -0.067632332 0.743000031 198 185 170
-0.016908070 -0.067632332 0.743000031 199 187 170
-0.015607444 -0.067632332 0.743000031 197 183 170
-0.014306842 -0.067632332 0.743000031 195 182 172
-0.013006216 -0.067632332 0.743000031 193 179 175
-0.011705589 -0.067632332 0.743000031 192 180 175
-0.010404963 -0.067632332 0.743000031 190 177 175
-0.009104336 -0.067632332 0.743000031 188 174 172
-0.007803734 -0.067632332 0.743000031 188 173 170
-0.006503108 -0.067632332 0.743000031 188 173 170
-0.005209483 -0.067723364 0.744000018 190 177 171
-0.003907106 -0.067723364 0.744000018 192 182 175
-0.002604729 -0.067723364 0.744000018 192 182 175
-0.001302377 -0.067723364 0.744000018 191 181 179
0.000000000 -0.067905419 0.746000051 191 182 179
0.001305903 -0.067905419 0.746000051 195 185 179
0.002622259 -0.068178482 0.749000013 199 183 176
0.003933364 -0.068178482 0.749000013 193 182 174
0.005258522 -0.068360537 0.751000047 188 182 173
0.006573128 -0.068360537 0.751000047 190 183 173
0.007898287 -0.068451568 0.752000034 192 183 175
0.009214643 -0.068451568 0.752000034 192 186 177
0.010559008 -0.068633623 0.754000008 192 182 174
0.011878913 -0.068633623 0.754000008 186 179 171
0.013233781 -0.068815671 0.756000042 186 179 171
0.014557188 -0.068815671 0.756000042 180 165 161
0.015880547 -0.068815671 0.756000042 158 154 151
0.017226662 -0.068906695 0.757000029 136 133 136
0.018551821 -0.068906695 0.757000029 113 95 120
0.019981958 -0.069270797 0.761000037 90 96 115
0.021314120 -0.069270797 0.761000037 93 83 109
0.022735506 -0.069543883 0.764000058 96 94 115
0.024072867 -0.069543883 0.764000058 98 99 121
0.025410281 -0.069543883 0.764000058 101 102 122
0.026817661 -0.069725931 0.766000032 107 103 123
0.028158575 -0.069725931 0.766000032 113 108 127
0.029499438 -0.069725931 0.766000032 119 111 130
0.030880563 -0.069816954 0.767000020 119 111 130
0.032307249 -0.069999009 0.769000053 125 117 130
0.033740889 -0.070181057 0.771000028 125 117 130
0.035181582 -0.070363119 0.773000062 134 127 130
0.036534701 -0.070363119 0.773000062 143 130 131
0.037936829 -0.070454143 0.774000049 149 137 132
0.039291751 -0.070454143 0.774000049 155 142 131
0.040646613 -0.070454143 0.774000049 158 149 131
0.042110063 -0.070636190 0.776000023 161 152 134
0.043580461 -0.070818245 0.778000057 165 158 138
0.045057867 -0.071000300 0.780000031 170 160 143
0.046423286 -0.071000300 0.780000031 166 165 149
0.047849920 -0.071091324 0.781000018 163 162 147
0.049217090 -0.071091324 0.781000018 163 162 147
0.050713751 -0.071273379 0.783000052 164 163 146
0.052217409 -0.071455427 0.785000026 166 161 143
0.053591583 -0.071455427 0.785000026 166 157 141
0.055105746 -0.071637481 0.787000060 167 156 141
0.056483418 -0.071637481 0.787000060 166 155 142
0.057934564 -0.071728505 0.788000047 166 156 145
0.059313938 -0.071728505 0.788000047 166 158 148
0.060693361 -0.071728505 0.788000047 166 158 150
0.062230274 -0.071910553 0.790000021 168 161 152
0.063613199 -0.071910553 0.790000021 170 164 151
0.064996079 -0.071910553 0.790000021 174 168 151
0.066547006 -0.072092608 0.792000055 174 168 151
0.067933433 -0.072092608 0.792000055 178 172 153
0.069319807 -0.072092608 0.792000055 182 177 155
0.070884779 -0.072274655 0.794000030 187 180 157
0.072274663 -0.072274655 0.794000030 192 187 160
0.073850088 -0.072456710 0.796000063 197 191 167
0.075054459 -0.072274655 0.794000030 202 196 175
0.076636903 -0.072456710 0.796000063 207 200 181
0.078030325 -0.072456710 0.796000063 209 201 188
0.079623252 -0.072638765 0.798000038 211 204 191
0.081020139 -0.072638765 0.798000038 214 208 194
0.082417063 -0.072638765 0.798000038 217 209 194
0.083918974 -0.072729789 0.799000025 218 213 195
0.085531220 -0.072911844 0.801000059 218 213 195
0.087150410 -0.073093891 0.803000033 219 213 195
0.088776603 -0.073275946 0.805000067 217 213 196
0.090409853 -0.073458001 0.807000041 215 213 196
0.092050046 -0.073640049 0.809000015 214 213 197
0.093697302 -0.073822103 0.811000049 213 213 197
0.095116936 -0.073822103 0.811000049 214 214 197
0.097012706 -0.074186206 0.815000057 215 212 195
0.098560184 -0.074277237 0.816000044 215 212 195
0.100233629 -0.074459285 0.818000019 215 213 193
0.101914153 -0.074641339 0.820000052 216 211 192
0.104861967 -0.075733647 0.832000017 213 211 190
0.106318362 -0.075733647 0.832000017 210 205 191
0.108552046 -0.076279812 0.838000059 210 205 191
0.110018939 -0.076279812 0.838000059 204 201 192
0.111751966 -0.076461859 0.840000033 198 192 187
0.113491938 -0.076643907 0.842000067 189 182 183
0.115238912 -0.076825961 0.844000041 180 175 176
0.116992950 -0.077008009 0.846000016 177 171 169
0.118893974 -0.077281088 0.849000037 174 166 167
0.120663755 -0.077463143 0.851000011 173 163 165
0.122727573 -0.077827252 0.855000019 173 161 163
0.124805391 -0.078191347 0.859000027 176 160 161
0.126603201 -0.078373410 0.861000061 179 166 161
0.128854319 -0.078828536 0.866000056 180 169 162
0.130671382 -0.079010583 0.868000031 180 169 162
0.132495373 -0.079192638 0.870000064 180 169 162
0.134018272 -0.079192638 0.870000064 182 173 166
-0.064155832 -0.068005212 0.733000040 195 188 179
-0.063044257 -0.068190753 0.735000014 196 188 176
-0.061757635 -0.068190753 0.735000014 198 184 171
-0.060553286 -0.068283536 0.736000061 194 183 166
-0.059264939 -0.068283536 0.736000061 190 176 158
-0.057976566 -0.068283536 0.736000061 165 166 149
-0.056688193 -0.068283536 0.736000061 140 139 133
-0.055550359 -0.068469092 0.738000035 112 121 118
-0.054258484 -0.068469092 0.738000035 84 89 111
-0.053038411 -0.068561867 0.739000022 75 65 105
-0.051744785 -0.068561867 0.739000022 75 65 105
-0.050451159 -0.068561867 0.739000022 93 72 96
-0.049290575 -0.068747416 0.741000056 111 100 98
-0.048122983 -0.068932965 0.743000031 129 114 113
-0.046822384 -0.068932965 0.743000031 156 143 129
-0.045521751 -0.068932965 0.743000031 183 162 148
-0.044221129 -0.068932965 0.743000031 189 171 167
-0.042920500 -0.068932965 0.743000031 196 176 170
-0.041619875 -0.068932965 0.743000031 196 179 173
-0.040319271 -0.068932965 0.743000031 197 182 170
-0.039018646 -0.068932965 0.743000031 195 181 167
-0.037718020 -0.068932965 0.743000031 194 180 167
-0.036319368 -0.068747416 0.741000056 194 180 167
-0.035022240 -0.068747416 0.741000056 194 179 167
-0.033725139 -0.068747416 0.741000056 195 177 169
-0.032428015 -0.068747416 0.741000056 196 177 171
-0.031130889 -0.068747416 0.741000056 197 177 170
-0.029833764 -0.068747416 0.741000056 197 180 169
-0.028536638 -0.068747416 0.741000056 197 179 169
-0.027239537 -0.068747416 0.741000056 197 179 170
-0.025872393 -0.068561867 0.739000022 198 180 172
-0.024645288 -0.068747416 0.741000056 197 180 175
-0.023348162 -0.068747416 0.741000056 197 181 174
-0.022051034 -0.068747416 0.741000056 197 183 173
-0.020753935 -0.068747416 0.741000056 197 185 171
-0.019456809 -0.068747416 0.741000056 197 185 171
-0.018159684 -0.068747416 0.741000056 198 185 170
-0.016862558 -0.068747416 0.741000056 199 187 170
-0.015565432 -0.068747416 0.741000056 197 183 170
-0.014268331 -0.068747416 0.741000056 195 182 172
-0.012971206 -0.068747416 0.741000056 193 179 175
-0.011705589 -0.068932965 0.743000031 192 180 175
-0.010404963 -0.068932965 0.743000031 190 177 175
-0.009104336 -0.068932965 0.743000031 188 174 172
-0.007803734 -0.068932965 0.743000031 188 173 170
-0.006503108 -0.068932965 0.743000031 188 173 170
-0.005202482 -0.068932965 0.743000031 190 177 171
-0.003901855 -0.068932965 0.743000031 192 182 175
-0.002604729 -0.069025747 0.744000018 192 182 175
-0.001302377 -0.069025747 0.744000018 191 181 179
0.000000000 -0.069211304 0.746000051 190 179 181
0.001305903 -0.069211304 0.746000051 193 182 183
0.002615257 -0.069304079 0.747000039 197 186 180
0.003933364 -0.069489628 0.749000013 193 184 178
0.005258522 -0.069675185 0.751000047 190 185 179
0.006573128 -0.069675185 0.751000047 192 185 181
0.007898287 -0.069767967 0.752000034 195 187 184
0.009214643 -0.069767967 0.752000034 194 185 187
0.010559008 -0.069953516 0.754000008 194 184 183
0.011878913 -0.069953516 0.754000008 189 180 179
0.013233781 -0.070139065 0.756000042 189 180 179
0.014557188 -0.070139065 0.756000042 185 178 172
0.015880547 -0.070139065 0.756000042 172 167 165
0.017226662 -0.070231840 0.757000029 160 160 150
0.018551821 -0.070231840 0.757000029 147 136 136
0.019981958 -0.070602953 0.761000037 135 119 123
0.021314120 -0.070602953 0.761000037 136 120 110
0.022735506 -0.070881277 0.764000058 137 103 116
0.024072867 -0.070881277 0.764000058 136 118 123
0.025410281 -0.070881277 0.764000058 135 108 127
0.026817661 -0.071066834 0.766000032 139 122 131
0.028158575 -0.071066834 0.766000032 144 114 132
0.029537950 -0.071159616 0.767000020 147 126 134
0.030880563 -0.071159616 0.767000020 147 126 134
0.032391272 -0.071530715 0.771000028 147 126 134
0.033740889 -0.071530715 0.771000028 150 118 130
0.035181582 -0.071716271 0.773000062 154 132 126
0.036534701 -0.071716271 0.773000062 159 131 129
0.037936829 -0.071809053 0.774000049 160 142 133
0.039291751 -0.071809053 0.774000049 162 146 137
0.040751643 -0.071994595 0.776000023 163 151 141
0.042110063 -0.071994595 0.776000023 165 157 143
0.043580461 -0.072180159 0.778000057 168 158 146
0.045057867 -0.072365709 0.780000031 171 163 150
0.046423286 -0.072365709 0.780000031 169 163 154
0.047849920 -0.072458476 0.781000018 167 162 151
0.049217090 -0.072458476 0.781000018 167 162 151
0.050713751 -0.072644033 0.783000052 167 161 148
0.052217409 -0.072829589 0.785000026 167 162 148
0.053591583 -0.072829589 0.785000026 166 158 148
0.055105746 -0.073015146 0.787000060 165 156 150
0.056483418 -0.073015146 0.787000060 165 156 153
0.057934564 -0.073107913 0.788000047 166 157 154
0.059313938 -0.073107913 0.788000047 166 158 155
0.060693361 -0.073107913 0.788000047 167 159 156
0.062230274 -0.073293462 0.790000021 170 161 157
0.063613199 -0.073293462 0.790000021 173 165 155
0.065160625 -0.073479027 0.792000055 176 168 154
0.066547006 -0.073479027 0.792000055 176 168 154
0.067933433 -0.073479027 0.792000055 180 172 156
0.069319807 -0.073479027 0.792000055 184 174 158
0.070884779 -0.073664576 0.794000030 188 178 159
0.072274663 -0.073664576 0.794000030 193 184 161
0.073664531 -0.073664576 0.794000030 198 192 167
0.075054459 -0.073664576 0.794000030 202 195 173
0.076636903 -0.073850133 0.796000063 206 202 178
